# .PCD v0.7 - Point Cloud Data file format
VERSION 0.7
FIELDS x y z rgb
SIZE 4 4 4 4
TYPE F F F F
COUNT 1 1 1 1
WIDTH 1001
HEIGHT 1
VIEWPOINT 0 0 0 1 0 0 0
POINTS 1001
DATA ascii
-0.20555964 -0.073241882 1.4533926 8.0084193e-39
-0.19515002 -0.073711611 1.4552126 1.491834e-38
-0.18517779 -0.073612086 1.4561074 1.2157566e-38
-0.17533913 -0.071476482 1.4566377 4.5110965e-39
-0.16317184 -0.073311776 1.4558692 5.6145657e-39
-0.15456264 -0.074099787 1.4544106 8.2893278e-39
-0.14527117 -0.074660718 1.4558704 9.0290396e-39
-0.13475217 -0.073415153 1.4567839 8.10997e-39
-0.12621732 -0.072331592 1.4564478 8.9386433e-39
-0.11359988 -0.074954644 1.4541731 5.8911372e-39
-0.10563514 -0.073940188 1.4545276 1.0868233e-38
-0.05023222 -0.072457798 1.4501313 1.4094701e-38
-0.041633897 -0.074436419 1.45128 1.4187263e-38
-0.033832289 -0.074522994 1.452561 1.3819202e-38
-0.023568353 -0.07473994 1.4560877 1.2712854e-38
-0.015199669 -0.075529791 1.4545876 1.0314325e-38
-0.004941606 -0.0774718 1.4574075 1.0314319e-38
0.00042131194 -0.078120425 1.4594289 1.0222114e-38
-0.50474286 -0.063611433 1.452 1.9441358e-38
-0.49921143 -0.06499429 1.452 1.9532834e-38
-0.46471077 -0.062033519 1.4557019 2.0085622e-38
-0.45527232 -0.064162292 1.4542165 2.0821032e-38
-0.44495761 -0.064824007 1.4571275 2.0639513e-38
-0.43802431 -0.063699648 1.4573143 2.1563265e-38
-0.22356002 -0.065262854 1.4580001 5.4334045e-39
-0.21663515 -0.066673689 1.4517883 5.895826e-39
-0.18496847 -0.06954319 1.4513669 6.1699059e-39
-0.17323096 -0.068023548 1.4523022 8.9382972e-39
-0.16493702 -0.068126455 1.4529995 8.5673622e-39
-0.12233859 -0.069335639 1.4513848 1.0048608e-38
-0.11339429 -0.067759998 1.452 8.6609592e-39
-0.10541821 -0.065456465 1.4518771 7.8276042e-39
-0.043896694 -0.064650178 1.4515156 1.3448624e-38
-0.034760941 -0.064303011 1.4532295 1.2711412e-38
-0.025686312 -0.06503696 1.4555151 1.0867849e-38
-0.016812513 -0.068433359 1.4569095 1.0131014e-38
-0.50750858 -0.059462857 1.452 1.9715761e-38
-0.47418767 -0.058894664 1.4548882 1.9621407e-38
-0.4651669 -0.057915162 1.451241 1.7684539e-38
-0.45541278 -0.054953501 1.4549294 1.731972e-38
-0.44400999 -0.055917293 1.454734 1.9440598e-38
-0.43549782 -0.056165259 1.4562813 2.0638779e-38
-0.42609549 -0.052822977 1.4563062 2.2759284e-38
-0.41433293 -0.053145617 1.4526078 1.9163677e-38
-0.40584177 -0.054350287 1.454802 1.8794537e-38
-0.39443544 -0.055637717 1.4532001 1.8055893e-38
-0.38411209 -0.054227632 1.4549054 1.8700884e-38
-0.37547812 -0.056240004 1.456 2.146495e-38
-0.36609277 -0.052896291 1.455864 2.2020636e-38
-0.35547429 -0.054154288 1.4580001 2.2111408e-38
-0.34525308 -0.052290924 1.456439 2.1007593e-38
-0.33418858 -0.052695241 1.4560001 1.9621742e-38
-0.32518664 -0.053367753 1.454983 2.0267116e-38
-0.31602398 -0.052376449 1.454662 1.9344068e-38
-0.30506667 -0.053158097 1.4560001 1.869905e-38
-0.29654554 -0.052613463 1.457828 2.026638e-38
-0.28389496 -0.05211658 1.4519895 1.8698337e-38
-0.27517304 -0.051599219 1.4545915 1.7960744e-38
-0.2657885 -0.05199711 1.4584867 1.7497608e-38
-0.22356001 -0.055542856 1.4580001 3.1306787e-39
-0.21987429 -0.056697145 1.452 3.8671564e-39
-0.10572897 -0.058302522 1.4517093 2.6653818e-39
-0.053797942 -0.053108513 1.4519157 1.261958e-38
-0.042956311 -0.054621253 1.452698 1.2158956e-38
-0.035208981 -0.055653151 1.4541973 1.0959339e-38
-0.026502708 -0.054299492 1.4578155 1.0222135e-38
-0.41734657 -0.048499916 1.4561468 1.8239161e-38
-0.40275213 -0.047631539 1.4548354 1.732012e-38
-0.39392361 -0.048446681 1.4548577 2.2114631e-38
-0.38522092 -0.04724656 1.457436 1.6486352e-38
-0.37471333 -0.047753055 1.4561918 2.1001791e-38
-0.36589813 -0.04634095 1.4552119 1.8142999e-38
-0.35560048 -0.047485717 1.4577094 1.8145864e-38
-0.34165737 -0.046744883 1.4537728 1.6485249e-38
-0.33624035 -0.047849286 1.452704 1.8240945e-38
-0.3236832 -0.045772009 1.4519395 1.8331681e-38
-0.31521365 -0.046734028 1.4560626 1.7960381e-38
-0.305408 -0.048091024 1.4562742 1.9619915e-38
-0.29209667 -0.047993708 1.4524844 2.2573074e-38
-0.28576839 -0.048487045 1.455296 2.0449671e-38
-0.27707979 -0.045517474 1.4574656 2.2663096e-38
-0.26529279 -0.0478037 1.4532913 1.897562e-38
-0.25549045 -0.04628332 1.453106 1.814516e-38
-0.24681282 -0.047195431 1.4550568 1.7408692e-38
-0.23575048 -0.044917449 1.4556757 1.0129938e-38
-0.22576983 -0.043363724 1.4534674 1.0320153e-38
-0.065712422 -0.042318054 1.4515519 1.3726283e-38
-0.053333938 -0.045070212 1.4524156 1.1419955e-38
-0.044468366 -0.044004064 1.4547824 1.1605068e-38
-0.034836061 -0.045327924 1.4552026 1.0774951e-38
-0.025491547 -0.044467203 1.4580101 1.0129943e-38
-0.23551354 -0.039555203 1.453131 2.6650231e-39
-0.10208397 -0.030286992 1.4525704 6.4464214e-40
-0.094149888 -0.033087518 1.4524966 3.6849399e-39
-0.085451685 -0.035274733 1.4510744 1.1514706e-38
-0.076451004 -0.03438054 1.4507095 1.381921e-38
-0.064692341 -0.03410475 1.4531504 1.2712484e-38
-0.055134553 -0.035066362 1.454356 1.1144804e-38
-0.044904571 -0.035061784 1.4566144 1.09597e-38
-0.035744112 -0.03571628 1.4580584 1.0498353e-38
-0.027383111 -0.036840815 1.4574478 1.0773875e-38
-0.53182286 -0.023605715 1.4580001 1.5300852e-38
-0.52586222 -0.023541143 1.4538001 1.5208308e-38
-0.10123666 -0.02573677 1.451845 2.2152189e-39
-0.094532631 -0.024590429 1.4523841 3.2265023e-39
-0.086167455 -0.025429226 1.453424 1.0320841e-38
-0.074442916 -0.024269931 1.4515748 1.3542975e-38
-0.063444391 -0.02431911 1.453191 1.1513577e-38
-0.054755345 -0.024787834 1.4556967 1.0775661e-38
-0.045841936 -0.025353571 1.458533 1.096042e-38
-0.034714289 -0.02499429 1.4580001 1.1974214e-38
-0.029160004 -0.02638286 1.4580001 1.1790543e-38
-0.524652 -0.015833015 1.4526666 1.5208303e-38
-0.10208441 -0.012124727 1.4520655 1.1059972e-39
-0.095331907 -0.014055149 1.4531852 3.3186952e-39
-0.088248499 -0.015093933 1.4530978 6.8163319e-39
-0.073957093 -0.014425327 1.4518927 1.2806841e-38
-0.064038329 -0.015034689 1.4537795 1.0867856e-38
-0.055430006 -0.016181488 1.4563619 1.0867859e-38
-0.045933113 -0.016333248 1.4582983 1.0960061e-38
-0.036797144 -0.015968572 1.4580001 1.188166e-38
-0.52326143 -0.0083071431 1.4535 1.5484527e-38
-0.10127308 -0.0052599111 1.454676 1.3807807e-39
-0.094246611 -0.0049511106 1.4554681 3.408367e-39
-0.085495867 -0.0046465038 1.4537972 9.211605e-39
-0.074820727 -0.004618851 1.4545588 1.0683466e-38
-0.065723844 -0.0060767215 1.4568763 1.1051897e-38
-0.056799535 -0.0057145394 1.4584929 1.0960068e-38
-0.045822859 -0.0064379224 1.4580001 1.160651e-38
-0.03749143 -0.0097200004 1.4580001 1.1973829e-38
-0.10154559 0.0043785959 1.4525704 1.1981831e-39
-0.094701447 0.0049038776 1.4558823 2.9477448e-39
-0.085674733 0.0052196132 1.4566534 8.6584298e-39
-0.074113466 0.0051390096 1.4564613 1.0868584e-38
-0.066565223 0.0045066825 1.4584457 1.1236649e-38
-0.058121637 0.0041657151 1.4580001 1.1605442e-38
-0.10204726 0.015986254 1.4518772 9.219577e-40
-0.09530133 0.014783156 1.4557146 1.9346747e-39
-0.085675582 0.014890255 1.4581496 9.0257648e-39
-0.073506206 0.015371759 1.4578084 9.7611494e-39
-0.066892855 0.015726382 1.4583646 1.0407242e-38
-0.059708573 0.012497144 1.4580001 1.1237375e-38
-0.11373121 0.027134337 1.450229 1.7882351e-38
-0.10292575 0.025882257 1.4544858 1.198553e-39
-0.096385099 0.022746325 1.4569353 1.4747713e-39
-0.083797805 0.023330705 1.4589344 6.9974553e-39
-0.075305715 0.021597831 1.4577919 9.670037e-39
-0.068039998 0.020828571 1.4580001 1.0684555e-38
-0.11442735 0.036187947 1.4521846 1.2627567e-38
-0.10465828 0.035104617 1.4555202 1.3822198e-39
-0.13200663 0.048344247 1.4518564 1.8619927e-38
-0.12420537 0.046451125 1.453029 1.6591266e-38
-0.11303577 0.045068815 1.4527175 5.3455543e-39
-0.10633218 0.044553153 1.4544848 4.6097535e-40
-0.14059727 0.055612192 1.4514811 1.9818107e-38
-0.13360798 0.05539462 1.4520146 1.8989068e-38
-0.12407514 0.054953765 1.452419 1.5207265e-38
-0.11513256 0.055208072 1.454788 6.2675036e-39
-0.10651609 0.055117473 1.4553519 5.5317238e-40
-0.15642977 0.067871034 1.4511156 1.8711381e-38
-0.14616413 0.065157615 1.452795 1.7789439e-38
-0.13476521 0.066015773 1.4535596 1.6037354e-38
-0.12562673 0.064889923 1.4555198 1.4376417e-38
-0.11489679 0.06437432 1.4548107 4.8842132e-39
-0.10694996 0.064256437 1.4563071 4.6133408e-40
-0.50197715 0.078822859 1.452 1.188891e-38
-0.16163947 0.07898321 1.4541776 9.2552961e-41
-0.15327871 0.074815661 1.4538133 7.8312349e-39
-0.1432191 0.074707955 1.454857 1.1059513e-38
-0.1349967 0.07564836 1.4553864 5.3448382e-39
-0.12522963 0.074255377 1.4551305 1.3814995e-39
-0.11609649 0.074735977 1.4574033 1.1981845e-39
-0.10761429 0.073594287 1.4580001 4.1491873e-39
-0.50526428 0.085821427 1.4535 1.0872579e-38
-0.16233444 0.085044608 1.4524417 7.3756224e-40
-0.15330312 0.08635886 1.4534051 9.7662726e-39
-0.14456716 0.086591817 1.4537826 1.1242484e-38
-0.13536812 0.085327975 1.456988 5.1600826e-39
-0.12532936 0.0844234 1.4581532 5.5209618e-40
-0.11636229 0.083592005 1.4580001 1.8435525e-39
-0.50613332 0.095683813 1.4560001 1.2899785e-38
-0.19664228 0.095970288 1.452 2.7586942e-40
-0.16401757 0.096135408 1.4522858 7.3792517e-40
-0.155637 0.095441259 1.4546092 5.2529929e-39
-0.14558889 0.095142022 1.4532255 1.0689671e-38
-0.13538611 0.094683878 1.455945 6.1735199e-39
-0.12732551 0.095328748 1.4584945 2.7658969e-40
-0.50283861 0.10750714 1.4565001 1.6401408e-38
-0.49921143 0.10509714 1.452 1.2991968e-38
-0.19517051 0.10572739 1.4523966 1.0127072e-39
-0.18505011 0.10650249 1.4534383 2.393478e-39
-0.17430165 0.10479634 1.4555395 1.5662467e-39
-0.16406912 0.10551021 1.4542689 7.3684477e-40
-0.15283929 0.10437944 1.4537445 7.0021917e-39
-0.14531946 0.10487454 1.4552505 1.1887497e-38
-0.13606167 0.1038184 1.4541193 8.5691769e-39
-0.12735923 0.10403282 1.4583238 3.6842799e-40
-0.5030812 0.11570972 1.4568001 1.3266369e-38
-0.49921143 0.11754286 1.452 1.7689557e-38
-0.20270132 0.11637529 1.4512955 6.3553552e-39
-0.19501647 0.11579353 1.4530867 3.3154259e-39
-0.18364057 0.11442244 1.4563479 2.1204925e-39
-0.17903736 0.11586659 1.4591706 1.6598745e-39
-0.16268528 0.11457713 1.4508973 4.6133548e-40
-0.15477113 0.11525764 1.4542187 2.2090966e-39
-0.14544277 0.11404929 1.4582487 2.763355e-39
-0.13561715 0.11432572 1.4580001 7.3684057e-40
-0.12913714 0.11247429 1.4580001 4.6062502e-40
-0.50294751 0.12372686 1.4532001 8.7498828e-39
-0.20172119 0.12494367 1.4511862 1.0963651e-38
-0.19490859 0.12378819 1.4522951 9.950605e-39
-0.18731011 0.12493454 1.4576898 8.0170191e-39
-0.17350611 0.12561758 1.4528171 4.052621e-39
-0.16482575 0.12556112 1.455523 4.1451698e-39
-0.15645511 0.1251995 1.4581338 5.3426242e-39
-0.14545287 0.12254144 1.4580001 6.9092352e-39
-0.21112591 0.13485838 1.4509686 1.2436998e-38
-0.20225321 0.13455519 1.4521912 1.2253315e-38
-0.1938999 0.13424495 1.4532403 1.0686711e-38
-0.18515649 0.13611199 1.4531386 8.106328e-39
-0.17407925 0.13549267 1.4551139 7.6442695e-39
-0.16675907 0.1340771 1.4569793 7.9212235e-39
-0.15968573 0.13191429 1.4580001 8.8438945e-39
-0.22042207 0.14703351 1.450578 1.1425718e-38
-0.21684243 0.14503887 1.4520088 1.179306e-38
-0.20627458 0.14599223 1.4519366 1.1701229e-38
-0.1964637 0.14475971 1.4559727 1.1793422e-38
-0.18509175 0.1447883 1.4530588 8.7502583e-39
-0.17487058 0.1450308 1.4569216 8.474033e-39
-0.1678317 0.14474553 1.4587476 8.6591445e-39
-0.15555565 0.14254615 1.458788 7.8289957e-39
-0.49710858 0.15274288 1.4580001 8.3843457e-39
-0.21666485 0.15516898 1.4538169 1.1609395e-38
-0.20482376 0.1547779 1.4554584 1.1700164e-38
-0.1947394 0.15547764 1.4528908 7.7354015e-39
-0.18486962 0.15493311 1.4543279 8.3818359e-39
-0.17485994 0.15471476 1.4572976 8.5662258e-39
-0.16762733 0.1552994 1.4587798 8.565158e-39
-0.22636671 0.16666263 1.4514879 1.1516846e-38
-0.21493907 0.16425484 1.4545008 1.1332093e-38
-0.20101854 0.16394638 1.4544526 9.9484442e-39
-0.19459759 0.16493653 1.4526539 8.1967258e-39
-0.1847821 0.16476521 1.4552777 8.289283e-39
-0.17567819 0.16543795 1.4575112 8.2896319e-39
-0.16797812 0.16532217 1.459163 7.5527941e-39
-0.22297533 0.17481707 1.4542893 1.1515752e-38
-0.21337372 0.1744362 1.457559 1.1148774e-38
-0.20388436 0.17594415 1.4535044 9.7651207e-39
-0.19506657 0.17516799 1.4538004 8.3818331e-39
-0.18459775 0.1751269 1.4558735 8.1048889e-39
-0.17655784 0.17422695 1.458483 8.289992e-39
-0.16797619 0.17183876 1.4589688 7.6446086e-39
-0.24226314 0.18670577 1.452996 1.1147703e-38
-0.23244622 0.18545638 1.4523627 1.1147705e-38
-0.22342455 0.1838309 1.4537663 1.1239893e-38
-0.21493685 0.18527861 1.455156 1.0411569e-38
-0.20472604 0.18537511 1.4523662 9.3048726e-39
-0.19474535 0.1846142 1.4534892 7.8286622e-39
-0.1848179 0.18508744 1.4568396 8.1038015e-39
-0.17884986 0.18418945 1.4590125 8.104526e-39
-0.24283487 0.19682671 1.4539157 1.1238809e-38
-0.23367046 0.1946533 1.4545182 1.1055504e-38
-0.22706522 0.194996 1.4573185 1.0963316e-38
-0.21361151 0.19528523 1.4535969 9.0275515e-39
-0.20636792 0.1955453 1.4529206 8.3829121e-39
-0.19438982 0.19450019 1.4544586 8.10417e-39
-0.18553498 0.19474715 1.4564084 7.919769e-39
-0.17816105 0.19263791 1.4593378 7.551348e-39
-0.24211363 0.20462386 1.4541202 1.1147692e-38
-0.23747526 0.20467496 1.4559808 1.0778913e-38
-0.22380307 0.20665067 1.4527998 7.919769e-39
-0.21158369 0.20515932 1.4511991 7.8290251e-39
-0.20442595 0.20602225 1.4556544 8.2900004e-39
-0.19471076 0.20448066 1.4552842 8.1967244e-39
-0.18721516 0.20165585 1.4554887 7.8272272e-39
-0.49224859 0.21453428 1.4580001 7.7393448e-39
-0.4881486 0.21434285 1.452 7.7397021e-39
-0.2467992 0.21508765 1.4527031 1.0871461e-38
-0.23857649 0.21610813 1.452593 9.4878107e-39
-0.22403605 0.21540269 1.4514354 7.5509921e-39
-0.21543819 0.21500865 1.4544505 7.6439094e-39
-0.20587248 0.21491157 1.4576648 8.1048861e-39
-0.19808275 0.21199942 1.4572371 8.3825534e-39
-0.49016571 0.22633715 1.4580001 7.4624034e-39
-0.24525799 0.22528745 1.4523019 1.0041346e-38
-0.23555392 0.22601047 1.452778 8.1045232e-39
-0.22414352 0.22576588 1.4556737 7.7353833e-39
-0.21633501 0.2247398 1.457696 8.3829121e-39
-0.20548432 0.22442167 1.4583193 8.4751134e-39
-0.26616526 0.23633781 1.4514697 1.0411215e-38
-0.25680095 0.23476 1.4519083 1.0595962e-38
-0.24412331 0.23452933 1.4545189 1.0411933e-38
-0.23533189 0.23521516 1.4528681 7.5513494e-39
-0.22526257 0.23479 1.4570459 7.4595111e-39
-0.2168465 0.23548278 1.4585361 7.9222801e-39
-0.20689712 0.23466857 1.4580001 8.3839939e-39
-0.27527055 0.24808279 1.4513707 1.0227551e-38
-0.26306644 0.24483888 1.4538716 1.0227189e-38
-0.25302652 0.24521218 1.4548194 1.0411206e-38
-0.24210304 0.24445587 1.4545505 9.8576779e-39
-0.2350131 0.24500774 1.4538586 7.5520683e-39
-0.22523642 0.24528363 1.4570196 7.6439094e-39
-0.21634594 0.24465643 1.458472 7.921571e-39
-0.20689715 0.243 1.4580001 8.3832737e-39
-0.27336749 0.2536318 1.4527967 1.0319379e-38
-0.26332447 0.25417709 1.4539447 1.0135708e-38
-0.25404957 0.25437871 1.455815 1.0042792e-38
-0.24396907 0.25535265 1.4534668 7.5517165e-39
-0.23555699 0.25485858 1.4552242 7.367677e-39
-0.22498292 0.25528896 1.4568334 7.1832899e-39
-0.21790156 0.25464395 1.4588876 7.2747681e-39
-0.48605144 0.26449335 1.454 7.462032e-39
-0.28407645 0.26693445 1.4505593 1.0319022e-38
-0.27255335 0.26444957 1.4521378 1.0226818e-38
-0.26786536 0.26577085 1.4575056 1.0135345e-38
-0.25170913 0.26553312 1.4524066 7.8290237e-39
-0.24433391 0.26516342 1.4533089 7.0903769e-39
-0.234909 0.26553538 1.4572488 7.090737e-39
-0.22569218 0.26389691 1.4566698 6.9063541e-39
-0.21875426 0.26284468 1.458847 6.7215873e-39
-0.48738858 0.27540001 1.4580001 7.1858081e-39
-0.28178167 0.27421981 1.4521893 1.0318307e-38
-0.27593005 0.27572829 1.4553459 1.0226092e-38
-0.26681349 0.27470767 1.4574116 1.0501965e-38
-0.25140345 0.27463543 1.452 7.7379169e-39
-0.24456263 0.27529073 1.4533478 6.9066975e-39
-0.23538399 0.27473891 1.4568523 6.9985456e-39
-0.2286616 0.2743637 1.4586658 7.3676896e-39
-0.28133446 0.28326717 1.4513611 1.0134628e-38
-0.27682629 0.28533947 1.4564024 1.0226816e-38
-0.26392147 0.28053075 1.4599706 1.0042446e-38
-0.25193971 0.28599676 1.4540981 6.8148662e-39
-0.24513496 0.285505 1.4570239 6.907059e-39
-0.23412924 0.28375542 1.4572551 6.905987e-39
-0.22848181 0.28395343 1.4591479 6.7216013e-39
-0.28047985 0.29016539 1.4513392 1.0134631e-38
-0.27573076 0.29615727 1.4542382 8.7513317e-39
-0.26408482 0.29580417 1.4527872 6.8148648e-39
-0.25539482 0.29620677 1.4551266 6.8148648e-39
-0.24518172 0.29496238 1.4579951 6.6308378e-39
-0.23675144 0.29229429 1.4580001 7.6449982e-39
-0.29912683 0.30687621 1.4500821 9.8580604e-39
-0.28414667 0.30610299 1.4547987 8.7516904e-39
-0.27485892 0.30509672 1.4534484 6.5386478e-39
-0.26558691 0.30548644 1.4559072 6.6301204e-39
-0.25632855 0.30479026 1.4579371 6.813797e-39
-0.24534142 0.30281779 1.457935 6.2609763e-39
-0.11017686 -0.15250318 1.4668601 2.2851833e-38
-0.10322725 -0.15082482 1.4623272 2.275855e-38
-0.095730029 -0.15160555 1.4647837 2.2479431e-38
-0.083332591 -0.15384266 1.4659468 2.3417687e-38
-0.073466867 -0.15278968 1.4633017 2.2853645e-38
-0.067948453 -0.15309821 1.4651439 2.2671073e-38
-0.055494767 -0.15318866 1.4628716 2.2857644e-38
-0.042080902 -0.152404 1.4624914 2.3231117e-38
-0.034897514 -0.15316994 1.4663295 2.2947659e-38
-0.0253946 -0.153652 1.4654279 2.2761459e-38
-0.015194738 -0.15277943 1.4645542 2.285294e-38
-0.0051424308 -0.15272814 1.4657819 2.2852239e-38
0.004474944 -0.15168998 1.4654304 1.8332826e-38
0.01566905 -0.15173022 1.4683343 1.2893262e-38
0.022915713 -0.15021031 1.4691256 1.4197606e-38
-0.11432828 -0.14657831 1.4653118 1.9990515e-38
-0.10812347 -0.14970222 1.4623659 2.2201409e-38
-0.082262866 -0.14918858 1.4640001 2.2768317e-38
-0.075291432 -0.14918858 1.4640001 2.2861229e-38
-0.068320006 -0.14918858 1.4640001 2.2861955e-38
-0.036107369 -0.14948383 1.4613199 2.3326201e-38
-0.020589519 -0.14928342 1.4609996 2.3326185e-38
-0.01340042 -0.14885376 1.4621186 1.8887825e-38
-0.0049935253 -0.14834899 1.463113 1.9257675e-38
0.0066036293 -0.14568675 1.4626772 1.7965107e-38
0.014532869 -0.14565034 1.4637369 1.6768372e-38
0.02512579 -0.14430358 1.4653845 1.6029366e-38
0.031647637 -0.14393589 1.4694785 1.4922659e-38
0.043591008 -0.1449402 1.4679288 1.7411578e-38
-0.11642286 -0.13454857 1.4640001 1.5844262e-38
0.0095817782 -0.13817592 1.4608431 1.4831178e-38
0.015113588 -0.13447359 1.4626448 1.3356426e-38
0.024938 -0.13497941 1.4634684 1.1974207e-38
0.030981179 -0.13484852 1.4669963 1.1144789e-38
0.044015624 -0.13850525 1.4674661 1.4372009e-38
-0.11712 -0.12548572 1.464 1.5753144e-38
0.0071666231 -0.12138002 1.4624774 1.3358224e-38
0.015024106 -0.12591138 1.4635994 1.2528102e-38
0.025816664 -0.12522598 1.4634397 1.1052621e-38
0.032113992 -0.12594754 1.4657226 1.0499802e-38
-0.11253878 -0.11413226 1.4640001 1.261992e-38
-0.0024175202 -0.11329037 1.4615719 1.206678e-38
0.0065971636 -0.11418532 1.463665 1.1699441e-38
0.016221812 -0.11499276 1.4640338 1.1146253e-38
0.025179034 -0.11459116 1.46526 9.76259e-39
0.031518508 -0.11503077 1.4680189 9.6689538e-39
-0.11200762 -0.10457145 1.4640001 1.2711415e-38
-0.014160848 -0.10111956 1.4613959 1.4556042e-38
-0.0046940604 -0.10478304 1.4638292 1.45564e-38
0.0059075463 -0.10495587 1.4654452 1.3911037e-38
0.015484149 -0.10542211 1.4632733 1.1697262e-38
0.02344686 -0.10633294 1.4661319 1.1052247e-38
0.030357599 -0.10845633 1.4684314 1.0223564e-38
-0.12301583 -0.091078669 1.467878 1.1051144e-38
-0.11154287 -0.094811432 1.464 1.4740783e-38
-0.01333545 -0.0922831 1.4610482 1.4280184e-38
-0.0034601497 -0.094504356 1.4639045 1.363409e-38
0.0057889381 -0.09421242 1.4641913 1.206676e-38
0.015197202 -0.094950095 1.4662796 1.0591626e-38
0.021584122 -0.095321469 1.4693927 1.0222496e-38
-0.22308573 -0.082262866 1.4640001 8.0188408e-39
-0.19261611 -0.084286764 1.4670739 8.9332721e-39
-0.18772784 -0.084415652 1.4687567 1.1699511e-38
-0.12388662 -0.082630947 1.4666084 7.4598965e-39
-0.11224 -0.085748583 1.4640001 1.3911744e-38
-0.020399138 -0.080351986 1.4602262 1.3913174e-38
-0.013652429 -0.084286712 1.4630504 1.3357149e-38
-0.0047999774 -0.084869623 1.4639992 1.3265312e-38
0.0047218483 -0.085057735 1.4635092 1.1328477e-38
0.014727074 -0.085832506 1.4661446 1.0405813e-38
0.021511722 -0.08649464 1.4691927 1.0129952e-38
-0.2258743 -0.076685727 1.4640001 7.7390001e-39
-0.21342963 -0.077415876 1.4644448 6.3571797e-39
-0.20504664 -0.075918876 1.4612932 1.1313766e-38
-0.19343632 -0.077397361 1.46324 1.4641048e-38
-0.18375503 -0.077764109 1.4628989 2.0366235e-38
-0.17525971 -0.075383231 1.4643582 1.2896225e-38
-0.16471092 -0.075189628 1.4626791 1.0043189e-38
-0.15861163 -0.07674551 1.4665039 8.5709454e-39
-0.14407188 -0.076291725 1.4656341 9.3063482e-39
-0.13517091 -0.076112509 1.4643228 8.4776749e-39
-0.12414329 -0.077142946 1.4623232 7.9223376e-39
-0.11247238 -0.076220959 1.4640001 1.1974572e-38
-0.020830641 -0.072176889 1.4659468 1.3265308e-38
-0.015154469 -0.075296648 1.4645461 1.3173832e-38
-0.005559538 -0.074079923 1.4635843 1.1329547e-38
0.0053150682 -0.074953295 1.4654232 1.0314685e-38
0.013932656 -0.074299216 1.4681433 1.0037738e-38
0.02240823 -0.074516654 1.4691513 9.9466211e-39
-0.47553688 -0.062076289 1.4609511 1.8978546e-38
-0.46374035 -0.063029125 1.4648117 1.9530269e-38
-0.45793495 -0.062960789 1.4659886 2.0916103e-38
-0.4446314 -0.066032633 1.4643552 2.3048494e-38
-0.43431753 -0.064147905 1.4641944 2.2117152e-38
-0.42906746 -0.064754725 1.4686067 2.2674999e-38
-0.23005715 -0.064137146 1.4640001 4.511088e-39
-0.22726861 -0.065531433 1.4640001 5.3412088e-39
-0.031591959 -0.061479077 1.4612561 1.4189058e-38
-0.023525918 -0.064774595 1.4641401 1.2989799e-38
-0.015183848 -0.064445518 1.4643825 1.1328845e-38
-0.0046294942 -0.065085515 1.4642501 1.0406519e-38
0.0063036368 -0.068104185 1.4672999 1.0313955e-38
0.013384121 -0.066845447 1.469233 9.9462624e-39
0.021503031 -0.069767088 1.4687376 9.9462596e-39
-0.45595121 -0.056215577 1.4646629 1.6670357e-38
-0.44440502 -0.051545732 1.4669987 1.6210855e-38
-0.43312761 -0.055997994 1.4638628 2.0544064e-38
-0.42684934 -0.052317876 1.4675287 1.9344791e-38
-0.41665646 -0.053367693 1.4654101 1.8977457e-38
-0.40529665 -0.053820021 1.465905 1.851685e-38
-0.3952626 -0.052915424 1.4661804 2.0821713e-38
-0.38580206 -0.056813985 1.464716 1.9991215e-38
-0.37451616 -0.05319101 1.4637346 2.1187975e-38
-0.36356875 -0.055058789 1.4655383 2.1840216e-38
-0.35438168 -0.057247326 1.4644911 2.2113569e-38
-0.34558699 -0.056960437 1.4643899 2.2115374e-38
-0.33427992 -0.055434637 1.4653805 2.1192673e-38
-0.32494769 -0.056304514 1.4652003 2.2019905e-38
-0.31692752 -0.054604851 1.4661194 2.1372722e-38
-0.3080495 -0.053717114 1.4645908 1.8328816e-38
-0.29419434 -0.057165723 1.4640001 1.8606157e-38
-0.28503031 -0.053955778 1.4641489 1.9990145e-38
-0.27385616 -0.053906322 1.4685763 2.0634437e-38
-0.26160356 -0.05227416 1.4641043 1.7406855e-38
-0.25760984 -0.051085509 1.4644419 1.7407591e-38
-0.23243022 -0.05112455 1.461421 1.6034108e-38
-0.22726859 -0.055771433 1.4640001 2.9462875e-39
-0.033892382 -0.05456036 1.4631 1.400287e-38
-0.024281885 -0.055733126 1.4646014 1.2158964e-38
-0.016082957 -0.0556673 1.4636533 1.0591277e-38
-0.004806743 -0.056648672 1.4677658 1.0314682e-38
0.00030058384 -0.054477438 1.4696864 9.9462624e-39
0.011468265 -0.057213701 1.4692458 9.9455435e-39
-0.44010955 -0.04889968 1.4621698 1.6947709e-38
-0.43674788 -0.049341779 1.4638062 1.676261e-38
-0.41163248 -0.049213268 1.4608231 1.6857323e-38
-0.40780693 -0.049764358 1.4625593 1.7132826e-38
-0.39450756 -0.048441123 1.4619099 1.5473669e-38
-0.38411087 -0.04961291 1.4615492 1.9249725e-38
-0.36499855 -0.049230363 1.4647377 2.0356788e-38
-0.35138851 -0.047793966 1.4604633 1.7128127e-38
-0.34793976 -0.048562132 1.4667217 1.6666765e-38
-0.33444163 -0.047167998 1.4633845 1.593096e-38
-0.32662818 -0.048198339 1.4650321 1.6300813e-38
-0.31556866 -0.049373556 1.4623618 1.6669262e-38
-0.30295452 -0.048053827 1.4614415 1.7312867e-38
-0.29507789 -0.049083844 1.4627969 1.7405426e-38
-0.28304195 -0.048528891 1.463316 2.2572338e-38
-0.27646658 -0.046900589 1.4646401 2.2850712e-38
-0.26991314 -0.045279257 1.4659394 1.9903341e-38
-0.25573707 -0.048437834 1.4642185 1.703844e-38
-0.24452198 -0.047218882 1.4633962 1.3907788e-38
-0.23304601 -0.046713341 1.4626456 1.1700926e-38
-0.22726859 -0.04740572 1.4640001 4.6061521e-40
-0.045183901 -0.041581392 1.4608434 1.3819196e-38
-0.034495968 -0.044898514 1.4646747 1.3727002e-38
-0.024487959 -0.04638651 1.4656143 1.2712141e-38
-0.016153449 -0.045512062 1.4629233 1.003882e-38
-0.00116128 -0.047910169 1.4688461 1.0129936e-38
0.0010474825 -0.047058523 1.469651 1.0038098e-38
-0.052425139 -0.031337231 1.4600643 1.3911023e-38
-0.043488793 -0.033707671 1.4620469 1.2712134e-38
-0.033323966 -0.03488759 1.4633192 1.1973839e-38
-0.024845779 -0.034275137 1.4652735 1.0775304e-38
-0.016097687 -0.035818692 1.467016 9.8529849e-39
-0.051143046 -0.026081681 1.4607968 1.3265637e-38
-0.043330457 -0.024324656 1.4618335 1.0868933e-38
-0.035779454 -0.025389012 1.4651265 1.0776019e-38
-0.025547357 -0.024750762 1.465956 1.049907e-38
-0.016943792 -0.029213618 1.4678078 1.003701e-38
-0.054256123 -0.012489041 1.4617599 1.0866785e-38
-0.044970874 -0.014574992 1.4648073 1.1144077e-38
-0.034655355 -0.01539577 1.4650686 1.0406876e-38
-0.026888382 -0.015143366 1.468093 1.0406879e-38
-0.064828634 -0.0031681415 1.4617156 1.0960057e-38
-0.053590197 -0.0049138176 1.4636577 1.0959344e-38
-0.044581182 -0.005576828 1.4661723 1.0222849e-38
-0.034748353 -0.0053596506 1.4656857 1.0407225e-38
-0.027885994 -0.0075901914 1.4673169 9.8540695e-39
-0.095325895 0.0056031169 1.4604236 2.7655312e-39
-0.083413981 0.0051939203 1.4611148 9.5782267e-39
-0.076195635 0.0059031979 1.4623768 1.0775301e-38
-0.06427937 0.0048420979 1.4622216 1.0590191e-38
-0.054673653 0.0055395346 1.4657874 1.0682744e-38
-0.047270902 0.0044483999 1.4667449 1.0776022e-38
-0.034299433 0.0025097146 1.4640001 1.114627e-38
-0.092656285 0.016268943 1.4619194 3.4098356e-39
-0.083385453 0.014897131 1.4626697 8.8406743e-39
-0.075812034 0.013995895 1.4644333 1.0314327e-38
-0.064427882 0.015204073 1.4638295 9.575689e-39
-0.055900767 0.014078347 1.4651639 1.0222128e-38
-0.04775041 0.014015433 1.4672061 9.9462525e-39
-0.10089532 0.027301682 1.4644536 9.2126546e-40
-0.094666258 0.024578877 1.4641352 2.3956641e-39
-0.085461162 0.025594188 1.4637702 7.0907538e-39
-0.075121514 0.025600795 1.4637851 8.7473674e-39
-0.065226868 0.025112936 1.4668607 8.9303266e-39
-0.05923868 0.022187395 1.4654804 1.0221416e-38
-0.10194571 0.035362639 1.4649616 1.4765832e-39
-0.09487056 0.034799017 1.4637952 2.4871282e-39
-0.084864415 0.034575719 1.4647535 7.1829354e-39
-0.075417712 0.034763508 1.4659871 8.4718525e-39
-0.06426207 0.032630365 1.4675525 7.640308e-39
-0.11170606 0.049265478 1.4649042 3.6734198e-40
-0.10261147 0.044867385 1.4645827 1.1063602e-39
-0.096902862 0.043920003 1.4640001 2.0279381e-39
-0.084693752 0.042613722 1.4677671 7.6428135e-39
-0.074468449 0.043618474 1.4673827 8.5622503e-39
-0.12314322 0.058745675 1.4608173 1.9173104e-38
-0.11256404 0.055040516 1.4630178 6.5437331e-39
-0.10412782 0.054734044 1.4649576 8.2904601e-40
-0.098994292 0.055771433 1.4640001 1.3822128e-39
-0.08330249 0.052976478 1.4696462 7.3669385e-39
-0.12334941 0.065945573 1.4617999 1.4654077e-38
-0.11575254 0.066302434 1.4643633 6.0805998e-39
-0.10443342 0.065260172 1.465024 5.5317518e-40
-0.0989943 0.065531433 1.4640001 1.5662341e-39
-0.082302824 0.061911408 1.4697356 7.8264677e-39
-0.50891435 0.079474293 1.4640001 1.1796285e-38
-0.13038138 0.072112285 1.4601592 4.8849307e-39
-0.12552737 0.07515242 1.4617964 1.6584479e-39
-0.11514014 0.07499107 1.4634433 3.1321417e-39
-0.1060918 0.074884281 1.4656341 4.3303318e-39
-0.15540794 0.08868809 1.4601185 1.5390944e-38
-0.13508239 0.086062275 1.4628119 8.0199548e-39
-0.12523894 0.084511682 1.463168 5.5245772e-40
-0.11474387 0.085452527 1.4660127 7.1858655e-39
-0.10804659 0.08462394 1.4672875 8.1982196e-39
-0.1436635 0.096027352 1.462043 1.4287807e-38
-0.13296926 0.094649412 1.4640309 8.2954515e-39
-0.12425191 0.094783537 1.462885 3.6842379e-40
-0.11457564 0.094492607 1.4654987 5.989123e-39
-0.10810103 0.095231451 1.4678437 1.20708e-38
-0.50891435 0.10178287 1.4640001 1.6495047e-38
-0.17722732 0.10991271 1.4622142 1.8439126e-39
-0.16631737 0.10857063 1.4644525 9.2051997e-40
-0.15185617 0.10720803 1.461553 1.3452273e-38
-0.14177154 0.10645299 1.4617066 1.2532495e-38
-0.13512337 0.10624665 1.4647583 4.0540994e-39
-0.12436914 0.10513924 1.4659975 5.5353111e-40
-0.1147962 0.10364191 1.464 4.0512071e-39
-0.10736001 0.10178287 1.4640001 1.2623245e-38
-0.50612575 0.11293714 1.4640001 1.64918e-38
-0.17464761 0.11554988 1.4644303 2.3038089e-39
-0.16383004 0.11477309 1.4664739 6.4465054e-40
-0.15099475 0.11652126 1.4615033 6.4429601e-40
-0.14463678 0.11580928 1.4636356 1.2893011e-39
-0.1354169 0.11481547 1.46535 1.0130687e-39
-0.12561484 0.11271638 1.4658431 1.1059818e-39
-0.11851429 0.11154286 1.4640001 5.5352691e-40
-0.50891435 0.12548572 1.4640001 7.6475191e-39
-0.18426065 0.12736443 1.4621584 7.6497135e-39
-0.17337409 0.1250913 1.4645089 6.7273663e-39
-0.16386053 0.12379522 1.4682014 7.2787422e-39
-0.15237704 0.1254607 1.4650342 6.5400911e-39
-0.14454183 0.12472171 1.4649856 5.9865544e-39
-0.13574792 0.12303022 1.4663477 6.8163081e-39
-0.12966858 0.12130287 1.4640001 8.2903914e-39
-0.18288414 0.13461946 1.4627026 1.1055149e-38
-0.17477877 0.1351749 1.4660047 1.1331372e-38
-0.16408741 0.13546062 1.4631013 8.1048917e-39
-0.15503131 0.13499139 1.4655565 7.9212109e-39
-0.14663099 0.13460925 1.4661696 8.6584214e-39
-0.19240694 0.14856942 1.460217 1.1791631e-38
-0.18188481 0.14516459 1.4623048 1.179268e-38
-0.17733629 0.14500253 1.4677299 1.1792346e-38
-0.16436143 0.14449202 1.4631459 9.0272025e-39
-0.15382059 0.14553383 1.4646167 8.6580599e-39
-0.1466267 0.14328265 1.4662732 8.9342951e-39
-0.20082726 0.15267558 1.4605196 1.1884191e-38
-0.19572878 0.15604207 1.4619734 1.1792336e-38
-0.18446285 0.15568265 1.4623421 1.151576e-38
-0.1770597 0.15618101 1.4646621 1.0869312e-38
-0.16293019 0.15501291 1.4622368 8.2892732e-39
-0.15544286 0.1546443 1.4654909 8.2896305e-39
-0.20864718 0.16805272 1.4614007 1.1608326e-38
-0.19624893 0.16656384 1.463869 1.1699435e-38
-0.18503425 0.1648737 1.4651563 1.142393e-38
-0.17540014 0.16476195 1.4640149 9.764762e-39
-0.16372065 0.16495268 1.4630036 8.4743889e-39
-0.15805383 0.16477107 1.4668335 8.1970845e-39
-0.21713899 0.17492901 1.4612023 1.1149133e-38
-0.20454356 0.17533736 1.4651788 1.1423929e-38
-0.1924196 0.1741281 1.4672793 1.1422853e-38
-0.17419167 0.17625956 1.4624249 8.2899906e-39
-0.1646364 0.17516367 1.4647828 8.1056036e-39
-0.1574253 0.17540784 1.4686896 7.8286523e-39
-0.21468413 0.1877296 1.4621938 1.1057275e-38
-0.20396543 0.18451995 1.4644856 1.124061e-38
-0.19936793 0.18429153 1.4699786 1.1331739e-38
-0.18626592 0.18475616 1.4666095 1.0409422e-38
-0.17414132 0.18525097 1.462267 8.1048875e-39
-0.16547477 0.18508068 1.4652449 7.7360994e-39
-0.15791997 0.18425342 1.4686548 7.8279223e-39
-0.22321153 0.19739071 1.4615343 1.1147332e-38
-0.2130529 0.19475876 1.4630746 1.1331721e-38
-0.2067856 0.19480383 1.4668701 1.1147691e-38
-0.19977111 0.19081365 1.4685197 1.1240249e-38
-0.18320069 0.19637811 1.4638503 8.3818373e-39
-0.17518772 0.19546013 1.4646634 8.1052462e-39
-0.16412732 0.19504234 1.4655583 7.6424646e-39
-0.15721723 0.1951911 1.4686729 7.6431821e-39
-0.24251804 0.20856337 1.4603262 1.1147701e-38
-0.23272534 0.20590976 1.4614351 1.0871468e-38
-0.22321668 0.20587063 1.4627495 1.0962949e-38
-0.21480329 0.2050795 1.4649042 1.1148054e-38
-0.20761195 0.20413008 1.4681267 1.0871472e-38
-0.19343767 0.20821974 1.465173 7.4584293e-39
-0.18451281 0.20525609 1.4650444 7.9194271e-39
-0.17581908 0.20373864 1.4662504 7.8290111e-39
-0.169174 0.20391715 1.4696268 7.6428248e-39
-0.15467156 0.20102067 1.46965 7.7360896e-39
-0.49357718 0.21053715 1.4640001 7.9233647e-39
-0.24108565 0.21443509 1.4611447 1.0963309e-38
-0.23648944 0.21517813 1.4653984 1.06878e-38
-0.22517256 0.21513557 1.4669371 1.096366e-38
-0.21321827 0.2171776 1.4648308 8.5651356e-39
-0.2020783 0.21517229 1.4611039 7.5506347e-39
-0.19482441 0.21541916 1.4642124 7.8275747e-39
-0.18624984 0.21427198 1.4666945 7.8286537e-39
-0.17986287 0.21193144 1.4640001 8.9364502e-39
-0.49497145 0.22169144 1.4640001 7.4642111e-39
-0.23690102 0.22418854 1.4646479 1.0779627e-38
-0.22632249 0.2244205 1.4662561 1.0687787e-38
-0.2143988 0.22514263 1.4618673 7.3662337e-39
-0.20448394 0.22482671 1.4625293 7.2747569e-39
-0.19510871 0.22516501 1.4646919 7.6435562e-39
-0.18711431 0.22531141 1.4675425 7.1822081e-39
-0.23482813 0.23496343 1.4654901 1.0411217e-38
-0.2228016 0.23332751 1.4690984 1.0595251e-38
-0.21401529 0.23484898 1.4617573 7.0907132e-39
-0.20518845 0.23496559 1.4652816 7.3665952e-39
-0.19599949 0.23423068 1.4648205 7.459158e-39
-0.1861593 0.23381953 1.4677429 7.0900083e-39
-0.23421657 0.24437813 1.4648015 1.0686725e-38
-0.22571559 0.24319795 1.4617457 6.9985231e-39
-0.21351293 0.24524267 1.461746 7.0903558e-39
-0.20491627 0.24475427 1.4652207 7.4584307e-39
-0.19764797 0.24487448 1.467348 7.4591608e-39
-0.49218291 0.25794289 1.4640001 7.5528011e-39
-0.2548013 0.25771078 1.4617511 1.0043168e-38
-0.24475597 0.25736073 1.462814 1.0319019e-38
-0.2342037 0.25454104 1.4632899 1.0318299e-38
-0.2135606 0.25510201 1.4645374 7.1822137e-39
-0.20590819 0.25473064 1.4670898 7.3673211e-39
-0.19687964 0.25176087 1.4690102 6.9974582e-39
-0.49218291 0.2649143 1.4640001 7.4620334e-39
-0.26339969 0.26577866 1.4628066 1.0134984e-38
-0.25246689 0.26391894 1.4635903 1.0134629e-38
-0.24593718 0.26467386 1.4668629 1.0410129e-38
-0.23727821 0.2642003 1.466506 1.059488e-38
-0.22341578 0.26820046 1.4627314 7.1829382e-39
-0.21448696 0.265201 1.4654411 7.1832913e-39
-0.20744467 0.26453581 1.4674609 7.1836501e-39
-0.48939431 0.2746743 1.4640001 7.4613104e-39
-0.26220691 0.27489093 1.4628539 1.0226462e-38
-0.25810474 0.2748163 1.4677358 1.0502327e-38
-0.24674344 0.27393496 1.468881 1.031865e-38
-0.2374633 0.27219427 1.469244 1.0134633e-38
-0.22407976 0.27529919 1.4620922 6.9981854e-39
-0.21565722 0.27461168 1.4649456 6.9988987e-39
-0.20816077 0.27577698 1.4687378 6.6290386e-39
-0.27198383 0.28595278 1.4620599 9.950598e-39
-0.26790327 0.28655484 1.4668145 9.7665711e-39
-0.25749803 0.28393924 1.4670855 9.858038e-39
-0.2406776 0.28837246 1.4603405 6.5379023e-39
-0.23484266 0.28831878 1.4627249 7.0914544e-39
-0.22412667 0.28483102 1.4633189 6.9989071e-39
-0.21483332 0.28430441 1.4654948 6.5379177e-39
-0.20725149 0.28475758 1.4689045 6.628677e-39
-0.27129668 0.29555938 1.4614323 9.9502378e-39
-0.2666837 0.29494938 1.4670012 1.0042073e-38
-0.25431746 0.2945644 1.4692653 9.8583743e-39
-0.24050659 0.29389712 1.461296 6.4467997e-39
-0.23469117 0.29535466 1.4629713 6.630828e-39
-0.22487861 0.29493722 1.4666022 6.630112e-39
-0.21511136 0.29494977 1.46782 6.1698471e-39
-0.20819946 0.29257238 1.4682639 6.2616882e-39
-0.28023663 0.306124 1.4601473 9.7651319e-39
-0.27469432 0.30650163 1.4612126 9.6736495e-39
-0.26667777 0.30508086 1.465486 9.6736538e-39
-0.23579507 0.30480453 1.4656863 6.6304735e-39
-0.22519702 0.30172005 1.4666513 6.1698653e-39
-0.21885881 0.30299431 1.4697497 5.8925792e-39
-0.11620902 -0.15375443 1.4772055 2.2386516e-38
-0.10556994 -0.15386081 1.4744421 2.24769e-38
-0.093495272 -0.15446383 1.4727542 2.2478709e-38
-0.086062297 -0.15342584 1.4732115 2.2861956e-38
-0.073876739 -0.15532067 1.4731579 2.2575971e-38
-0.065079212 -0.15598889 1.4747043 2.2480165e-38
-0.054854006 -0.15429805 1.4737254 2.2666371e-38
-0.044778626 -0.153837 1.4748294 2.2668896e-38
-0.033912636 -0.15672632 1.4751849 2.276111e-38
-0.024583399 -0.1572693 1.4744533 2.2668559e-38
-0.014554508 -0.15579692 1.4726914 2.2855112e-38
-0.0038199387 -0.15442924 1.4734764 2.2856554e-38
0.0043878956 -0.15415595 1.4757352 2.2578166e-38
0.014895693 -0.1541224 1.4741765 2.129031e-38
0.024750162 -0.15313329 1.4750888 1.4282686e-38
0.035738241 -0.15181266 1.4770371 1.9164713e-38
0.045647323 -0.15206261 1.4773936 1.7317223e-38
0.052625667 -0.15202983 1.4794219 1.4916908e-38
-0.11869635 -0.14683634 1.4739921 1.8514321e-38
-0.0854 -0.1498 1.47 2.2952337e-38
-0.0154 -0.1498 1.47 2.3322232e-38
-0.0014000001 -0.1498 1.47 2.2853309e-38
0.0056000003 -0.1477 1.47 1.9621766e-38
0.015738729 -0.14833185 1.4702138 1.9071809e-38
0.026242387 -0.14618517 1.4709796 1.7506287e-38
0.0348447 -0.14514315 1.4733953 1.4829738e-38
0.045104664 -0.14455716 1.4751952 1.2615262e-38
0.052738246 -0.14513531 1.4771571 1.160254e-38
0.063612603 -0.14426149 1.4770001 1.2895806e-38
0.073146671 -0.14207335 1.4770001 1.0866794e-38
-0.12238 -0.13504001 1.4770001 1.5751705e-38
-0.119 -0.1372 1.47 1.5936452e-38
0.027882092 -0.13402548 1.4718651 1.4186911e-38
0.035446648 -0.13560964 1.4713459 1.1697981e-38
0.044796918 -0.13456401 1.4739745 1.040615e-38
0.053518359 -0.13520811 1.4761628 9.8529821e-39
0.063300014 -0.13593517 1.4770002 1.1236655e-38
0.073146671 -0.13785334 1.4770001 1.1327413e-38
-0.12238 -0.12519334 1.4770001 1.5937175e-38
0.019610817 -0.12568611 1.4708745 1.4003597e-38
0.026325203 -0.12404379 1.4715817 1.2713589e-38
0.035596609 -0.12489178 1.4739975 1.0223927e-38
0.044754118 -0.12460721 1.4743221 8.5633377e-39
0.053163175 -0.12548801 1.4768598 9.3001699e-39
0.061424449 -0.12706891 1.4770001 1.1236302e-38
-0.12238 -0.11534667 1.4770001 1.5753139e-38
-0.11788096 -0.11427524 1.4710002 1.5661666e-38
0.024222448 -0.11502412 1.4725888 1.2807211e-38
0.035154711 -0.11542593 1.4747626 1.0500885e-38
0.043487798 -0.11484814 1.4759218 9.9484204e-39
0.053805001 -0.11640167 1.4770001 1.0960784e-38
-0.11724287 -0.10561429 1.4730002 1.4739711e-38
0.0082961302 -0.10178487 1.4710042 1.4187977e-38
0.017184762 -0.10320349 1.4714762 1.3634096e-38
0.02603858 -0.10375075 1.4726278 1.2159322e-38
0.033629939 -0.10578383 1.4742985 1.1974933e-38
0.04369675 -0.10580547 1.477293 1.1051544e-38
-0.11732223 -0.096288905 1.4723334 1.4740062e-38
0.0090638231 -0.094468139 1.470741 1.3450418e-38
0.016625825 -0.095107354 1.4710288 1.3265669e-38
0.02595019 -0.094850995 1.4727139 1.1974575e-38
0.032112546 -0.095627785 1.4756413 1.105226e-38
0.043606669 -0.099873349 1.4770001 1.123558e-38
-0.23210001 -0.084400006 1.4770001 9.3985368e-39
-0.22798668 -0.084737793 1.4746668 8.4783812e-39
-0.2114554 -0.081631206 1.4771891 1.2151428e-38
-0.20669641 -0.08213383 1.4766018 1.0495944e-38
-0.19629666 -0.084100313 1.4729134 9.8577423e-39
-0.18486789 -0.083757855 1.4745632 1.7789808e-38
-0.176155 -0.082021579 1.4746394 2.13858e-38
-0.16371524 -0.081394821 1.4781495 2.0280522e-38
-0.15399998 -0.084000006 1.47 2.1663807e-38
-0.14502597 -0.08226449 1.4748067 1.2349196e-38
-0.13412997 -0.08153408 1.4737734 6.8188725e-39
-0.12765233 -0.083792374 1.4721708 6.171694e-39
-0.11675334 -0.084400006 1.4770001 1.3911385e-38
0.0067722639 -0.084030367 1.4716694 1.3266022e-38
0.01496247 -0.084780857 1.4728296 1.2712496e-38
0.025212592 -0.084781185 1.4740958 1.1237008e-38
0.032588948 -0.085448883 1.4758929 1.0774595e-38
-0.43254855 -0.073084585 1.4797614 2.2580662e-38
-0.23230445 -0.074782223 1.4723334 6.4475242e-39
-0.21232457 -0.078784451 1.4767189 1.2784203e-38
-0.20523691 -0.079449236 1.4744416 1.7133269e-38
-0.19895011 -0.07992737 1.4707017 1.3536184e-38
-0.18153208 -0.079320207 1.4719393 2.3043853e-38
-0.17636703 -0.079371147 1.4722025 2.2307384e-38
-0.1677067 -0.078551248 1.4716195 1.6222474e-38
-0.15530603 -0.078629874 1.4744618 1.2165822e-38
-0.14145155 -0.078841083 1.4710381 7.6475653e-39
-0.13630602 -0.078848943 1.4732072 7.1873075e-39
-0.1232 -0.074200004 1.47 7.3684267e-39
-0.11788001 -0.075783342 1.4735 9.5764205e-39
-0.014801182 -0.070709765 1.4701029 1.4188333e-38
-0.0031818666 -0.074541084 1.4707278 1.2621016e-38
0.0057096016 -0.07525827 1.4721044 1.2989082e-38
0.014701152 -0.0758636 1.4721054 1.1420682e-38
0.025936725 -0.074570715 1.4756939 1.0499793e-38
0.032175843 -0.075396709 1.4790648 9.9462666e-39
-0.45382717 -0.061451655 1.4761711 1.9897942e-38
-0.43729627 -0.064785182 1.473738 2.1659067e-38
-0.42360178 -0.062811874 1.4749331 2.1472493e-38
-0.41322404 -0.061440002 1.4728001 1.750234e-38
-0.40596119 -0.061535012 1.4742137 1.8423926e-38
-0.39639202 -0.061440002 1.4728001 1.6948816e-38
-0.38622665 -0.063200012 1.4746668 2.0728101e-38
-0.37653503 -0.063225009 1.4752501 2.082031e-38
-0.36656448 -0.06226667 1.4746668 2.0912855e-38
-0.35475501 -0.062525004 1.4752501 2.1464944e-38
-0.34381336 -0.061750002 1.4735 2.1373479e-38
-0.33566672 -0.06226667 1.4746668 2.146567e-38
-0.32480001 -0.060200002 1.47 2.1834091e-38
-0.31931335 -0.060486671 1.4770001 2.1835171e-38
-0.23372002 -0.063887626 1.4720002 4.0508204e-39
-0.014898952 -0.064271376 1.4706397 1.3358581e-38
-0.005460572 -0.064633965 1.4710146 1.2896894e-38
0.0044801454 -0.064083979 1.4728703 1.1882008e-38
0.015096931 -0.064760916 1.4729325 1.1328488e-38
0.024275156 -0.064611636 1.4758284 1.031469e-38
0.031659126 -0.068109319 1.4786878 9.7640263e-39
-0.4530412 -0.05669976 1.4722016 1.6947316e-38
-0.44439611 -0.056404114 1.4748026 1.7314674e-38
-0.43540895 -0.054201487 1.4747272 1.6485277e-38
-0.42453298 -0.056028992 1.4745283 1.8515387e-38
-0.41547418 -0.054650143 1.4756708 1.8238796e-38
-0.40480068 -0.05335509 1.4751422 1.8147664e-38
-0.39653492 -0.05384719 1.4738741 1.8791611e-38
-0.38541278 -0.054479774 1.4747946 2.0450043e-38
-0.37437358 -0.054205049 1.4762805 2.091103e-38
-0.36803097 -0.052233391 1.473976 2.0356437e-38
-0.35559723 -0.052006721 1.4742197 2.0821736e-38
-0.34384057 -0.054574694 1.4766432 2.0915009e-38
-0.33571786 -0.055110708 1.4762456 2.0362543e-38
-0.32573155 -0.053055875 1.4747308 1.8606468e-38
-0.31444111 -0.053645741 1.4748195 1.8513546e-38
-0.30373484 -0.052915681 1.4750899 1.8973812e-38
-0.29320344 -0.052595392 1.4725128 1.6668154e-38
-0.28580537 -0.053165335 1.4744525 1.8329138e-38
-0.27870637 -0.052884389 1.4735799 1.9436598e-38
-0.26529995 -0.056874812 1.4756645 1.6670732e-38
-0.25557396 -0.052238107 1.4746959 1.6395242e-38
-0.24545495 -0.051322095 1.4755363 1.1333193e-38
-0.23417558 -0.054686666 1.4723336 1.0137904e-39
-0.022182452 -0.054548133 1.4713873 1.4095412e-38
-0.013183855 -0.053044301 1.4711751 1.2066751e-38
-0.0056624133 -0.054121628 1.4726106 1.2620306e-38
0.0052398951 -0.054773517 1.4735899 1.1328839e-38
0.015546431 -0.055157237 1.4753425 1.0959705e-38
0.023219896 -0.055669039 1.4762663 9.762227e-39
-0.34274217 -0.049392506 1.4710153 1.5929559e-38
-0.33946103 -0.049881976 1.4724685 1.6206472e-38
-0.27676553 -0.047902189 1.470674 2.1008998e-38
-0.25188023 -0.04934768 1.4734621 1.3907419e-38
-0.2498979 -0.049460508 1.4722884 1.4925188e-38
-0.23380002 -0.049000002 1.47 1.6588081e-39
-0.023028255 -0.043607011 1.4707512 1.2988729e-38
-0.0139126 -0.044786852 1.4715368 1.2159676e-38
-0.0058324137 -0.044647776 1.4732865 1.1329917e-38
0.0053422558 -0.045156602 1.4756569 1.1144099e-38
0.014024682 -0.047365587 1.4760904 1.059092e-38
0.021962106 -0.049863897 1.4794725 9.5799798e-39
-0.023942566 -0.03501761 1.4700533 1.2158614e-38
-0.014787511 -0.034599584 1.4726825 1.2158967e-38
-0.0053362073 -0.034924958 1.4735553 1.0406524e-38
0.0051222667 -0.035414532 1.477658 1.0498359e-38
0.010238541 -0.033233508 1.4799819 8.9306573e-39
-0.034510743 -0.020091353 1.4702872 1.3541174e-38
-0.023000224 -0.024507279 1.4722649 1.2342996e-38
-0.014833333 -0.025268015 1.4740324 1.1051888e-38
-0.0050542089 -0.025048388 1.4753056 1.059092e-38
0.0036527694 -0.027298411 1.4771034 1.01303e-38
0.010412036 -0.029467305 1.4798065 1.3543688e-38
-0.040377978 -0.011760604 1.471427 1.3449699e-38
-0.035272665 -0.013228504 1.4730304 1.3541533e-38
-0.022928957 -0.014429794 1.4729173 1.1421755e-38
-0.015515357 -0.015991965 1.4760804 1.1052602e-38
-0.0056126723 -0.015783107 1.4780163 9.7614801e-39
-0.044062845 -0.0024389983 1.4735819 1.2620294e-38
-0.03447995 -0.0046003833 1.4742033 1.1881649e-38
-0.024221107 -0.0046179835 1.4749564 9.2090757e-39
-0.01623548 -0.0051511601 1.4777893 9.3023293e-39
-0.0082775112 -0.0036288307 1.4764798 7.7314233e-39
-0.052340265 0.0080982093 1.4729549 1.3450047e-38
-0.043168336 0.0051102815 1.4723421 1.096041e-38
-0.035116199 0.0056851907 1.4741302 9.8529989e-39
-0.026077937 0.0040775812 1.4756126 7.2754856e-39
-0.015556486 0.002766079 1.4782575 8.1963433e-39
-0.0085504148 0.0017355004 1.4762307 7.9176138e-39
-0.077601835 0.017632701 1.4711608 1.197312e-38
-0.065922819 0.017731043 1.4719121 1.2158597e-38
-0.053936515 0.016669285 1.473109 1.0498343e-38
-0.044430092 0.015123052 1.4742179 1.0221762e-38
-0.035169188 0.014451293 1.4752278 9.9448218e-39
-0.027036089 0.014713517 1.4784492 9.3001545e-39
-0.10028186 0.027662881 1.472357 3.6950769e-39
-0.096754953 0.027387917 1.4722308 1.1067329e-39
-0.082850933 0.027789498 1.4727596 1.0316878e-38
-0.073842689 0.025429219 1.4744527 1.1882359e-38
-0.063561015 0.025429107 1.4749287 1.1605782e-38
-0.054977555 0.024880342 1.4725142 9.3912921e-39
-0.045054361 0.025151251 1.4754071 8.7480821e-39
-0.036458522 0.024814153 1.4779457 8.8410008e-39
-0.029540002 0.023913335 1.4770001 9.762611e-39
-0.1014493 0.035783123 1.4733577 1.0148848e-39
-0.097697444 0.035520863 1.4734038 1.3862093e-39
-0.083842106 0.035028961 1.4729211 9.3045419e-39
-0.07466422 0.035140701 1.475275 1.0868584e-38
-0.065060124 0.036286358 1.473358 8.5647726e-39
-0.054472614 0.034786902 1.4736269 4.2319816e-39
-0.044566419 0.034010652 1.4762275 4.5085643e-39
-0.038778152 0.031992421 1.4788944 4.7844309e-39
-0.10187396 0.044550508 1.4763435 1.478049e-39
-0.094149806 0.04475148 1.4733599 4.0526504e-39
-0.085590929 0.045620322 1.4721813 8.5647937e-39
-0.07594718 0.046036888 1.4729197 9.4860199e-39
-0.064973198 0.044948511 1.47315 8.1967076e-39
-0.0549291 0.044776034 1.4768069 5.7070879e-39
-0.048788358 0.043922726 1.4782172 5.6163384e-39
-0.10251431 0.054730184 1.4743942 1.5691474e-39
-0.094804808 0.055468138 1.4748042 3.4083698e-39
-0.084667772 0.054908004 1.472744 7.9201319e-39
-0.074727595 0.055172782 1.4734063 8.4718553e-39
-0.065409198 0.05482775 1.4770093 8.0123177e-39
-0.053397194 0.05327139 1.4777088 4.5071378e-39
-0.048683953 0.050335206 1.4796895 5.0581746e-39
-0.10225513 0.065450713 1.4736292 1.0145261e-39
-0.095227048 0.064336933 1.476427 3.3165217e-39
-0.084107131 0.064284921 1.4751148 8.288183e-39
-0.074741162 0.064501524 1.4737993 8.3796513e-39
-0.064772256 0.064109944 1.4776109 7.6424576e-39
-0.51379997 0.079800002 1.47 8.8460245e-39
-0.11176206 0.078171417 1.4714118 9.7702509e-39
-0.10340969 0.074708596 1.4736456 3.5016627e-39
-0.097993955 0.072891057 1.4771712 3.2272142e-39
-0.085432015 0.074990124 1.4776562 8.1977936e-39
-0.076917604 0.074984685 1.4772558 8.1034133e-39
-0.061892636 0.070820302 1.47881 6.9963693e-39
-0.059763659 0.070422135 1.4796351 7.2690004e-39
-0.51379997 0.084000006 1.47 1.1978916e-38
-0.12041793 0.083620906 1.4712327 9.2126826e-40
-0.11577237 0.08511015 1.4728857 3.4058545e-39
-0.10528217 0.085016087 1.4753549 4.6072788e-39
-0.087013535 0.082633443 1.4792187 9.9473582e-39
-0.076432765 0.081758454 1.478546 7.457709e-39
-0.12409279 0.095572062 1.4738793 1.1052672e-39
-0.11515734 0.095361173 1.4770153 7.4577861e-39
-0.10426564 0.094638638 1.4757504 3.5005613e-39
-0.099239439 0.092875689 1.479908 1.4733462e-39
-0.085191928 0.090469658 1.4797105 6.6250701e-39
-0.51099998 0.1064 1.47 1.7598484e-38
-0.13022861 0.10695221 1.4763534 1.4754804e-39
-0.12446315 0.10498754 1.4749864 1.3818554e-39
-0.11557519 0.10472427 1.4730165 4.6054613e-39
-0.10532527 0.10511155 1.4762294 2.2098154e-39
-0.099845707 0.10371909 1.479602 3.1325032e-39
-0.51362336 0.11366999 1.4735001 1.1144782e-38
-0.1426542 0.11720949 1.4709762 2.1215659e-39
-0.13222845 0.11627838 1.4715636 2.8558967e-39
-0.12582448 0.11636446 1.4738095 2.8551722e-39
-0.11494392 0.11496952 1.4747381 3.3161392e-39
-0.10674073 0.11336817 1.4765879 2.7622451e-39
-0.51624668 0.12378667 1.4770001 7.2790953e-39
-0.16706704 0.12749067 1.471637 9.6747482e-39
-0.14355251 0.12674612 1.4722687 8.4747406e-39
-0.13447887 0.1260507 1.4745779 8.6587788e-39
-0.12603369 0.12377004 1.4748808 8.1981579e-39
-0.11496089 0.12294945 1.4778271 8.1974391e-39
-0.10960761 0.12124984 1.4799442 7.9222731e-39
-0.51062006 0.13926001 1.4770001 8.7524023e-39
-0.16527037 0.1357473 1.4725295 1.1423574e-38
