# .PCD v0.7 - Point Cloud Data file format
VERSION 0.7
FIELDS x y z rgb
SIZE 4 4 4 4
TYPE F F F F
COUNT 1 1 1 1
WIDTH 1042
HEIGHT 1
VIEWPOINT 0 0 0 1 0 0 0
POINTS 1042
DATA ascii
-0.37336573 0.65286624 1.1706642 9.8573794e-39
-0.37081718 0.65286624 1.1706642 1.0041755e-38
-0.36826858 0.65286624 1.1706642 1.0133951e-38
-0.36572 0.65286624 1.1706642 1.0134654e-38
-0.36317143 0.65286624 1.1706642 1.0319046e-38
-0.36062288 0.65286624 1.1706642 1.0226147e-38
-0.35807431 0.65286624 1.1706642 1.0041755e-38
-0.35419714 0.65042657 1.1662894 1.0226147e-38
-0.35165811 0.65042657 1.1662894 1.0410538e-38
-0.34911907 0.65042657 1.1662894 1.0501657e-38
-0.34658003 0.65042657 1.1662894 1.022507e-38
-0.34404096 0.65042657 1.1662894 1.0133951e-38
-0.34150192 0.65042657 1.1662894 1.0226147e-38
-0.33896285 0.65042657 1.1662894 1.0409459e-38
-0.33642384 0.65042657 1.1662894 1.0409459e-38
-0.33513716 0.65286624 1.1706642 1.0409459e-38
-0.33258858 0.65286624 1.1706642 1.0409459e-38
-0.33004001 0.65286624 1.1706642 1.0409462e-38
-0.32749146 0.65286624 1.1706642 1.0317266e-38
-0.32494286 0.65286624 1.1706642 1.0502005e-38
-0.32239428 0.65286624 1.1706642 1.0778592e-38
-0.31984574 0.65286624 1.1706642 1.0686749e-38
-0.31729716 0.65286624 1.1706642 1.0778945e-38
-0.31474859 0.65286624 1.1706642 1.0686396e-38
-0.31220001 0.65286624 1.1706642 9.7644397e-39
-0.30965143 0.65286624 1.1706642 1.0225418e-38
-0.30710286 0.65286624 1.1706642 1.0686396e-38
-0.3056924 0.65530598 1.1750388 1.0502005e-38
-0.30313429 0.65530598 1.1750388 1.0317613e-38
-0.30057621 0.65530598 1.1750388 1.0409809e-38
-0.2980181 0.65530598 1.1750388 1.0502005e-38
-0.29436001 0.65286624 1.1706642 1.0502358e-38
-0.29181144 0.65286624 1.1706642 1.0686749e-38
-0.28926286 0.65286624 1.1706642 1.059385e-38
-0.28671429 0.65286624 1.1706642 1.0501654e-38
-0.28416574 0.65286624 1.1706642 1.0501654e-38
-0.28161713 0.65286624 1.1706642 1.0317263e-38
-0.27906856 0.65286624 1.1706642 1.059384e-38
-0.27652001 0.65286624 1.1706642 1.0870427e-38
-0.27397144 0.65286624 1.1706642 1.059384e-38
-0.27142286 0.65286624 1.1706642 1.0501645e-38
-0.26887432 0.65286624 1.1706642 1.059349e-38
-0.26632571 0.65286624 1.1706642 1.0501294e-38
-0.26377714 0.65286624 1.1706642 1.0501279e-38
-0.26122859 0.65286624 1.1706642 1.068567e-38
-0.25868002 0.65286624 1.1706642 1.0593474e-38
-0.25613144 0.65286624 1.1706642 1.068567e-38
-0.25453049 0.65530598 1.1750388 1.0777881e-38
-0.25197238 0.65530598 1.1750388 1.0409099e-38
-0.2505286 0.65823364 1.1802884 1.0686036e-38
-0.24795906 0.65823364 1.1802884 1.0962623e-38
-0.24538955 0.65823364 1.1802884 1.0962254e-38
-0.24282001 0.65823364 1.1802884 1.0685667e-38
-0.24025048 0.65823364 1.1802884 1.0777513e-38
-0.23768097 0.65823364 1.1802884 1.0869708e-38
-0.23511145 0.65823364 1.1802884 1.0869708e-38
-0.23254192 0.65823364 1.1802884 1.0685317e-38
-0.22997241 0.65823364 1.1802884 1.087078e-38
-0.22740287 0.65823364 1.1802884 1.1055171e-38
-0.22483334 0.65823364 1.1802884 1.1055169e-38
-0.22226383 0.65823364 1.1802884 1.0778582e-38
-0.2196943 0.65823364 1.1802884 1.0869708e-38
-0.21712478 0.65823364 1.1802884 1.0869708e-38
-0.21455525 0.65823364 1.1802884 1.0870059e-38
-0.21198574 0.65823364 1.1802884 1.0962254e-38
-0.2094162 0.65823364 1.1802884 1.0778229e-38
-0.20684667 0.65823364 1.1802884 1.0593837e-38
-0.20427716 0.65823364 1.1802884 1.0777863e-38
-0.20170763 0.65823364 1.1802884 1.0962254e-38
-0.1991381 0.65823364 1.1802884 1.1054453e-38
-0.19656859 0.65823364 1.1802884 1.1054453e-38
-0.19399907 0.65823364 1.1802884 1.1238841e-38
-0.19142953 0.65823364 1.1802884 1.1146645e-38
-0.18886 0.65823364 1.1802884 1.1329237e-38
-0.18629049 0.65823364 1.1802884 1.1052651e-38
-0.18372096 0.65823364 1.1802884 1.1236689e-38
-0.18115143 0.65823364 1.1802884 1.142108e-38
-0.17858192 0.65823364 1.1802884 1.1328884e-38
-0.1760124 0.65823364 1.1802884 1.1328884e-38
-0.17344286 0.65823364 1.1802884 1.1420361e-38
-0.17087334 0.65823364 1.1802884 1.1420361e-38
-0.16830382 0.65823364 1.1802884 1.1328168e-38
-0.16573429 0.65823364 1.1802884 1.1328168e-38
-0.16316478 0.65823364 1.1802884 1.1235982e-38
-0.16059525 0.65823364 1.1802884 1.1143787e-38
-0.15802573 0.65823364 1.1802884 1.1236689e-38
-0.1554562 0.65823364 1.1802884 1.142108e-38
-0.15288667 0.65823364 1.1802884 1.142107e-38
-0.15031715 0.65823364 1.1802884 1.1513266e-38
-0.14774762 0.65823364 1.1802884 1.1328887e-38
-0.14517811 0.65823364 1.1802884 1.10523e-38
-0.14260858 0.65823364 1.1802884 1.1328165e-38
0.07066191 0.65823364 1.1802884 1.4095479e-38
0.078660958 0.66067332 1.1846632 9.5853397e-39
0.089699998 0.66604072 1.1942874 7.2740352e-39
0.096714288 0.66067332 1.1846632 8.8432303e-39
0.11177429 0.65823364 1.1802884 1.1145199e-38
0.11434382 0.65823364 1.1802884 1.1604745e-38
0.11691334 0.65823364 1.1802884 1.1604745e-38
0.11948287 0.65823364 1.1802884 1.1882045e-38
0.12205239 0.65823364 1.1802884 1.2343024e-38
0.12462191 0.65823364 1.1802884 1.206644e-38
0.12719144 0.65823364 1.1802884 1.1697657e-38
0.12976097 0.65823364 1.1802884 1.178986e-38
0.13233048 0.65823364 1.1802884 1.178986e-38
0.1349 0.65823364 1.1802884 1.1605824e-38
0.13746955 0.65823364 1.1802884 1.1605824e-38
0.14003906 0.65823364 1.1802884 1.1605822e-38
0.14260858 0.65823364 1.1802884 1.1790213e-38
0.14517811 0.65823364 1.1802884 1.1790228e-38
0.14774762 0.65823364 1.1802884 1.1605837e-38
0.15031715 0.65823364 1.1802884 1.1513989e-38
0.15288667 0.65823364 1.1802884 1.1606184e-38
0.1554562 0.65823364 1.1802884 1.1790932e-38
0.15861143 0.66067332 1.1846632 1.1975323e-38
0.16119049 0.66067332 1.1846632 1.1698383e-38
0.16376953 0.66067332 1.1846632 1.13296e-38
0.16634859 0.66067332 1.1846632 1.142108e-38
0.16892762 0.66067332 1.1846632 1.1513276e-38
0.17087334 0.65823364 1.1802884 1.1421799e-38
0.17344286 0.65823364 1.1802884 1.1513994e-38
0.1760124 0.65823364 1.1802884 1.1053749e-38
0.17858192 0.65823364 1.1802884 1.0777162e-38
0.18115143 0.65823364 1.1802884 1.0869358e-38
0.18372096 0.65823364 1.1802884 1.0777162e-38
0.18629049 0.65823364 1.1802884 1.1144493e-38
0.18956001 0.66067332 1.1846632 1.1236689e-38
0.19213906 0.66067332 1.1846632 1.1237042e-38
0.19471811 0.66067332 1.1846632 1.1329237e-38
0.19729716 0.66067332 1.1846632 1.0963326e-38
0.1998762 0.66067332 1.1846632 1.0963326e-38
0.20245525 0.66067332 1.1846632 1.0962254e-38
0.2050343 0.66067332 1.1846632 1.0962254e-38
0.20761335 0.66067332 1.1846632 1.0778229e-38
0.21019238 0.66067332 1.1846632 1.0870424e-38
0.21277145 0.66067332 1.1846632 1.087114e-38
0.21535048 0.66067332 1.1846632 1.087114e-38
0.21792954 0.66067332 1.1846632 1.0870427e-38
0.22050858 0.66067332 1.1846632 1.0686036e-38
0.22308764 0.66067332 1.1846632 1.0869338e-38
0.22566667 0.66067332 1.1846632 1.0961534e-38
0.22824574 0.66067332 1.1846632 1.0778582e-38
0.23082477 0.66067332 1.1846632 1.0962973e-38
0.23340383 0.66067332 1.1846632 1.087078e-38
0.23598287 0.66067332 1.1846632 1.0778585e-38
0.23856193 0.66067332 1.1846632 1.0778585e-38
0.24114096 0.66067332 1.1846632 1.0778585e-38
0.24372002 0.66067332 1.1846632 1.0686046e-38
0.2472086 0.66311306 1.1890378 1.0409459e-38
0.24979715 0.66311306 1.1890378 1.0501294e-38
0.25238571 0.66311306 1.1890378 1.059349e-38
0.25497431 0.66311306 1.1890378 1.0409459e-38
0.25756288 0.66311306 1.1890378 1.0409459e-38
0.25919431 0.66067332 1.1846632 1.0042124e-38
0.26177335 0.66067332 1.1846632 9.7655369e-39
0.26435238 0.66067332 1.1846632 9.6736944e-39
0.26693144 0.66067332 1.1846632 9.4893031e-39
0.27050573 0.66311306 1.1890378 9.3963858e-39
0.66151434 0.66848046 1.1986622 5.0751135e-39
0.66703242 0.67140806 1.2039118 4.8021784e-39
0.66965336 0.67140806 1.2039118 5.0787653e-39
0.67227429 0.67140806 1.2039118 4.5259418e-39
-0.49606097 0.64243138 1.1468316 4.6987752e-39
0.068092383 0.66054869 1.1791736 1.1882777e-38
0.078660958 0.66299701 1.1835442 7.0024566e-39
0.090028577 0.67083156 1.1975299 7.4541105e-39
0.092299998 0.66838324 1.1931593 1.4092196e-38
0.096714288 0.66299701 1.1835442 8.8450225e-39
0.6487 0.66838324 1.1931593 8.9422698e-39
0.65649998 0.66838324 1.1931593 8.392689e-39
0.6591 0.66838324 1.1931593 1.2014299e-39
-0.49606097 0.64468294 1.1457473 4.0552008e-39
0.068344772 0.66532063 1.1824253 1.0867206e-38
0.076081902 0.66532063 1.1824253 9.3045587e-39
0.090028577 0.67318261 1.1963978 6.6243526e-39
0.092638105 0.67318261 1.1963978 1.0312172e-38
0.099293344 0.66532063 1.1824253 9.1190857e-39
0.10187238 0.66532063 1.1824253 9.2112813e-39
0.10445144 0.66532063 1.1824253 9.3949565e-39
0.6487 0.67072576 1.1920313 9.9560714e-39
0.65649998 0.67072576 1.1920313 8.667471e-39
-0.49356189 0.64693451 1.144663 6.0777089e-39
0.068344772 0.66764426 1.1813062 1.0684591e-38
0.076081902 0.66764426 1.1813062 7.9223698e-39
0.090422854 0.67849225 1.2005002 5.796757e-39
0.6487 0.67306828 1.1909032 9.8649548e-39
0.65890479 0.67553371 1.1952655 8.2064929e-39
-0.49356189 0.64918607 1.1435786 5.2508349e-39
0.068344772 0.66996789 1.1801872 1.0775713e-38
0.076081902 0.66996789 1.1801872 7.6450472e-39
0.092638105 0.67788482 1.1941333 1.0039548e-38
0.64610004 0.67541081 1.189775 8.389452e-39
0.65890479 0.67788482 1.1941333 7.8366131e-39
-0.49544287 0.65392017 1.1468483 5.250116e-39
0.068344772 0.67229158 1.1790682 1.0316187e-38
0.076081902 0.67229158 1.1790682 7.0004037e-39
0.090028577 0.68023592 1.193001 5.8907449e-39
0.64610004 0.67775333 1.1886469 8.1132378e-39
0.65890479 0.68023592 1.193001 5.5324791e-39
-0.49732381 0.6586715 1.1501098 4.6962388e-39
0.068344772 0.6746152 1.1779492 1.0958692e-38
0.076081902 0.6746152 1.1779492 6.4479137e-39
0.090028577 0.68258703 1.1918688 5.7063564e-39
0.64610004 0.68009579 1.1875188 8.3894744e-39
0.65390003 0.68009579 1.1875188 8.2036412e-39
-0.49732381 0.66094029 1.1490172 4.328866e-39
0.068344772 0.67693883 1.1768302 1.0683537e-38
0.076081902 0.67693883 1.1768302 5.8022136e-39
0.090028577 0.68493813 1.1907365 5.5241301e-39
0.64610004 0.68243837 1.1863908 7.929941e-39
0.65390003 0.68243837 1.1863908 5.806915e-39
-0.50522387 0.67374408 1.1661595 3.5905695e-39
0.068344772 0.67926246 1.1757112 1.0499499e-38
0.076081902 0.67926246 1.1757112 5.0642758e-39
0.090028577 0.68728924 1.1896044 5.7993143e-39
0.64610004 0.68478084 1.1852627 8.3894744e-39
0.65390003 0.68478084 1.1852627 4.517939e-39
-0.50079435 0.67353189 1.1607122 7.1876494e-39
-0.44560286 0.67101496 1.1563746 7.5553501e-39
-0.44306383 0.67101496 1.1563746 8.1085239e-39
-0.44052479 0.67101496 1.1563746 8.1085337e-39
-0.4252905 0.67101496 1.1563746 7.3724134e-39
-0.40649715 0.67353189 1.1607122 7.8319468e-39
-0.40394861 0.67353189 1.1607122 7.6475555e-39
-0.40140003 0.67353189 1.1607122 7.7397091e-39
-0.39885142 0.67353189 1.1607122 7.9241004e-39
0.068344772 0.68158615 1.1745921 9.8573794e-39
0.076081902 0.68158615 1.1745921 4.0515728e-39
0.089699998 0.68712336 1.1841346 5.5245253e-39
0.18698096 0.68158615 1.1745921 9.0268929e-39
0.64610004 0.68712336 1.1841346 8.022131e-39
0.65390003 0.68712336 1.1841346 3.3208405e-39
-0.5026657 0.67835361 1.1639397 7.1869431e-39
-0.46766287 0.6758281 1.1596065 8.5698369e-39
-0.46337619 0.67330259 1.155273 6.5415331e-39
-0.46083716 0.67330259 1.155273 6.4486746e-39
-0.45829812 0.67330259 1.155273 5.7111096e-39
-0.45575908 0.67330259 1.155273 5.7110998e-39
-0.45322001 0.67330259 1.155273 6.6330561e-39
-0.45068097 0.67330259 1.155273 6.3578831e-39
-0.4481419 0.67330259 1.155273 5.7125137e-39
-0.43798572 0.67330259 1.155273 5.4352262e-39
-0.43544668 0.67330259 1.155273 4.8813335e-39
-0.43290761 0.67330259 1.155273 4.3281597e-39
-0.43198287 0.6758281 1.1596065 4.9745983e-39
-0.4294343 0.6758281 1.1596065 5.8965546e-39
-0.42433715 0.6758281 1.1596065 5.6196174e-39
-0.42178857 0.6758281 1.1596065 5.8947876e-39
-0.41924003 0.6758281 1.1596065 5.802592e-39
-0.41669145 0.6758281 1.1596065 6.0798823e-39
-0.41414285 0.6758281 1.1596065 6.4486648e-39
-0.4115943 0.6758281 1.1596065 6.8149236e-39
-0.40904573 0.6758281 1.1596065 6.6305324e-39
-0.40649715 0.6758281 1.1596065 6.5376235e-39
-0.39885142 0.6758281 1.1596065 8.2885963e-39
0.068597153 0.68643528 1.1778065 1.0408758e-38
0.076081902 0.68390977 1.1734731 3.2214198e-39
0.089699998 0.68946588 1.1830064 5.9837084e-39
0.12766287 0.68390977 1.1734731 8.7510164e-39
0.13024192 0.68390977 1.1734731 8.1042275e-39
0.13331144 0.68643528 1.1778065 8.0120319e-39
0.13590001 0.68643528 1.1778065 8.1042205e-39
0.14313714 0.68390977 1.1734731 7.6428892e-39
0.14571621 0.68390977 1.1734731 7.8276406e-39
0.14829524 0.68390977 1.1734731 8.0120319e-39
0.1508743 0.68390977 1.1734731 7.8272903e-39
0.15345334 0.68390977 1.1734731 7.4585078e-39
0.1560324 0.68390977 1.1734731 7.3655737e-39
0.15861143 0.68390977 1.1734731 7.273378e-39
0.16119049 0.68390977 1.1734731 7.3645199e-39
0.16376953 0.68390977 1.1734731 7.087933e-39
0.16634859 0.68390977 1.1734731 7.9201796e-39
0.16892762 0.68390977 1.1734731 8.0123752e-39
0.17214 0.68643528 1.1778065 7.8283343e-39
0.17472859 0.68643528 1.1778065 7.9205299e-39
0.17731716 0.68643528 1.1778065 7.8279839e-39
0.17990573 0.68643528 1.1778065 7.4592014e-39
0.1824943 0.68643528 1.1778065 7.3663023e-39
0.18508287 0.68643528 1.1778065 7.0897154e-39
0.18767144 0.68643528 1.1778065 7.1812048e-39
0.64610004 0.68946588 1.1830064 8.7571751e-39
0.65130001 0.68946588 1.1830064 1.0695399e-38
-0.5026657 0.6806584 1.1628298 6.725965e-39
-0.46766287 0.67812431 1.1585007 8.5709187e-39
-0.4294343 0.67812431 1.1585007 5.2519013e-39
-0.39885142 0.67812431 1.1585007 9.0257648e-39
0.068900004 0.6918084 1.1818783 1.0317641e-38
0.076081902 0.6862334 1.1723541 2.3920445e-39
0.089699998 0.6918084 1.1818783 6.0762642e-39
0.12766287 0.6862334 1.1723541 6.4468445e-39
0.13848858 0.68876749 1.1766833 7.7354352e-39
0.14055811 0.6862334 1.1723541 7.3691862e-39
0.18767144 0.68876749 1.1766833 6.8131412e-39
0.19026001 0.68876749 1.1766833 8.4726625e-39
0.64326 0.68876749 1.1766833 9.3106922e-39
0.6484372 0.68876749 1.1766833 1.0141519e-38
-0.49892285 0.67787778 1.1530696 6.1727884e-39
-0.46766287 0.68042046 1.1573949 8.5698369e-39
-0.4294343 0.68042046 1.1573949 5.3427152e-39
-0.40140003 0.68042046 1.1573949 6.3525287e-39
-0.39885142 0.68042046 1.1573949 9.3027889e-39
0.068900004 0.69415092 1.1807503 1.0592786e-38
0.076081902 0.68855703 1.1712351 1.6544739e-39
0.089699998 0.69415092 1.1807503 6.0762642e-39
0.12554573 0.69109976 1.1755602 9.3971047e-39
0.18767144 0.69109976 1.1755602 7.3666807e-39
0.19026001 0.69109976 1.1755602 9.6715714e-39
0.64349997 0.69415092 1.1807503 8.6649795e-39
0.6484372 0.69109976 1.1755602 9.5872763e-39
-0.49892285 0.68016541 1.151968 6.2646365e-39
-0.4651143 0.68271667 1.1562891 7.0032399e-39
-0.4294343 0.68271667 1.1562891 5.3440969e-39
-0.40140003 0.68271667 1.1562891 6.9982359e-39
0.068900004 0.69649345 1.1796222 1.0500951e-38
0.076081902 0.69088072 1.1701161 1.102026e-39
0.090028577 0.6990447 1.1839432 6.5354402e-39
0.12554573 0.69343197 1.174437 9.5807771e-39
0.1885 0.69649345 1.1796222 7.2759172e-39
0.64349997 0.69649345 1.1796222 8.8493708e-39
0.6484372 0.69343197 1.174437 8.94226e-39
-0.50079435 0.68501282 1.1551833 5.6182105e-39
-0.4651143 0.68501282 1.1551833 7.7404448e-39
-0.46256575 0.68501282 1.1551833 7.0003841e-39
-0.4294343 0.68501282 1.1551833 4.7916714e-39
-0.40140003 0.68501282 1.1551833 6.6305295e-39
0.068900004 0.69883597 1.1784941 1.0776812e-38
0.076700002 0.69883597 1.1784941 1.102026e-39
0.090028577 0.70139587 1.182811 6.4454026e-39
0.12554573 0.69576418 1.1733139 9.4893003e-39
0.1885 0.69883597 1.1784941 7.2759172e-39
0.64349997 0.69883597 1.1784941 9.3103489e-39
0.65130001 0.69883597 1.1784941 8.4826916e-39
-0.50079435 0.68730903 1.1540775 5.0675549e-39
-0.46256575 0.68730903 1.1540775 6.6344952e-39
-0.4294343 0.68730903 1.1540775 4.8831062e-39
-0.39885142 0.68730903 1.1540775 8.3825996e-39
0.068597153 0.69809639 1.1721908 1.0777172e-38
0.076362863 0.69809639 1.1721908 8.2651947e-40
0.090028577 0.70374691 1.1816788 6.7212804e-39
0.12554573 0.69809639 1.1721908 9.4893003e-39
0.18919049 0.70374691 1.1816788 7.7372428e-39
0.64606482 0.70682901 1.1868539 7.6522653e-39
0.65368575 0.70374691 1.1816788 7.1919878e-39
-0.50079435 0.68960524 1.1529717 4.8831664e-39
-0.46256575 0.68960524 1.1529717 6.8174572e-39
-0.4294343 0.68960524 1.1529717 5.5274218e-39
-0.39885142 0.68960524 1.1529717 7.9216215e-39
0.068597153 0.70042866 1.1710676 1.0776809e-38
0.076081902 0.6978516 1.1667591 1.0101905e-39
0.090422854 0.70919043 1.1857167 6.5368892e-39
0.1261 0.70352101 1.1762378 9.1219597e-39
0.18919049 0.70609802 1.1805465 7.7375932e-39
0.64606482 0.70919043 1.1857167 7.7437267e-39
0.65368575 0.70609802 1.1805465 6.1764037e-39
-0.49892285 0.6893158 1.1475614 3.963724e-39
-0.46256575 0.69190139 1.151866 6.5422996e-39
-0.4294343 0.69190139 1.151866 5.6188859e-39
-0.4003419 0.69448698 1.1561702 8.1045554e-39
0.068597153 0.70276088 1.1699445 1.05935e-38
0.076081902 0.70017529 1.1656401 6.4284847e-40
0.090422854 0.71155179 1.1845796 6.4443432e-39
0.1261 0.70586354 1.1751097 8.9382845e-39
0.18919049 0.70844913 1.1794143 7.6446871e-39
0.64606482 0.71155179 1.1845796 7.2834772e-39
0.65392762 0.71155179 1.1845796 7.0076288e-39
-0.49892285 0.69160342 1.1464598 3.9623059e-39
-0.46256575 0.6941976 1.1507602 7.2809212e-39
-0.4003419 0.69679177 1.1550604 7.736161e-39
0.068900004 0.70820606 1.1739817 1.1143792e-38
0.076081902 0.70249891 1.1645211 1.1938615e-39
0.090422854 0.7139132 1.1834424 6.7198511e-39
0.12656191 0.71080023 1.178282 8.6616977e-39
0.18919049 0.71080023 1.178282 7.7368897e-39
0.64841241 0.71650738 1.1877426 7.5600641e-39
0.65392762 0.7139132 1.1834424 6.6373721e-39
-0.50079435 0.69649374 1.1496544 2.9477981e-39
-0.46256575 0.69649374 1.1496544 7.6490003e-39
-0.4003419 0.6990965 1.1539505 7.4588357e-39
0.068900004 0.71054858 1.1728536 1.0869005e-38
0.076081902 0.70482254 1.1634021 8.2651947e-40
0.087801903 0.71627462 1.1823052 4.3306737e-39
0.12656191 0.71315134 1.1771498 8.4773036e-39
0.18919049 0.71315134 1.1771498 7.9205551e-39
0.64841241 0.71887738 1.1866013 7.3771175e-39
0.65630382 0.71887738 1.1866013 4.9792899e-39
-0.49824572 0.69878995 1.1485486 5.2511852e-39
-0.46256575 0.69878995 1.1485486 7.6504394e-39
-0.44382954 0.70140129 1.1528406 4.6047719e-39
-0.39778382 0.70140129 1.1528406 8.5698187e-39
0.068900004 0.7128911 1.1717255 1.1235988e-38
0.076362863 0.70975751 1.1665751 1.4693679e-39
0.088120952 0.72124732 1.18546 4.9760403e-39
0.12656191 0.71550244 1.1760176 8.2929123e-39
0.18919049 0.71550244 1.1760176 8.1056652e-39
0.64841241 0.72124732 1.18546 8.2043545e-39
0.65630382 0.72124732 1.18546 3.6885188e-39
-0.49638382 0.69846618 1.1431549 5.3404816e-39
-0.46256575 0.7010861 1.1474428 7.9270263e-39
-0.44382954 0.70370603 1.1517307 4.3317625e-39
-0.39778382 0.70370603 1.1517307 7.646101e-39
0.069152385 0.71785355 1.1748854 1.0777172e-38
0.074100003 0.71523362 1.1705974 1.1151706e-38
0.088503815 0.72676122 1.1894642 5.3448228e-39
0.12656191 0.71785355 1.1748854 8.2007167e-39
0.18919049 0.71785355 1.1748854 8.1049464e-39
0.64841241 0.72361732 1.1843187 8.3898247e-39
0.65367335 0.72361732 1.1843187 1.0235147e-38
-0.49638382 0.70075381 1.1420531 4.2366606e-39
-0.46256575 0.70338231 1.146337 8.2028873e-39
-0.44382954 0.70601082 1.1506207 4.2406458e-39
-0.39778382 0.70601082 1.1506207 7.6475457e-39
0.069152385 0.72020459 1.1737531 1.1421443e-38
0.074371435 0.72020459 1.1737531 1.1424695e-38
0.088503815 0.72914147 1.188318 5.4380974e-39
0.12656191 0.72020459 1.1737531 8.3836688e-39
0.18919049 0.72020459 1.1737531 8.1964231e-39
0.64841241 0.72598732 1.1831774 8.7575156e-39
0.65367335 0.72598732 1.1831774 9.7720179e-39
-0.49824572 0.70567846 1.1452312 4.1444649e-39
-0.4617362 0.70831555 1.1495109 4.2395542e-39
-0.4458124 0.71148002 1.1546464 4.0577021e-39
-0.39778382 0.70831555 1.1495109 7.5549998e-39
0.069152385 0.72255576 1.1726209 1.1515103e-38
0.074371435 0.72255576 1.1726209 1.0598181e-38
0.088503815 0.73152173 1.1871717 5.5302931e-39
0.12656191 0.72255576 1.1726209 8.3833185e-39
0.18919049 0.72255576 1.1726209 8.3808074e-39
0.65367335 0.72835726 1.182036 9.2177679e-39
-0.50010765 0.71062034 1.1484009 3.8671592e-39
-0.4617362 0.71062034 1.1484009 4.9763934e-39
-0.44746479 0.71644074 1.1578071 4.2392165e-39
-0.39956099 0.71379507 1.1535314 7.6453975e-39
0.069455236 0.72808158 1.1766193 1.2342708e-38
0.074697144 0.72808158 1.1766193 1.1608377e-38
0.088503815 0.73390204 1.1860254 5.5302931e-39
0.12711619 0.72808158 1.1766193 8.38295e-39
0.14546286 0.72808158 1.1766193 6.6341099e-39
0.64578193 0.73072726 1.1808947 8.2040014e-39
0.65367335 0.73072726 1.1808947 8.8497141e-39
-0.49569714 0.71027088 1.1430197 7.2780471e-39
-0.4617362 0.71292508 1.1472909 5.0682359e-39
-0.44746479 0.71876442 1.1566881 4.0530106e-39
-0.39956099 0.71611017 1.1524166 7.3684505e-39
0.069455236 0.730443 1.175482 1.252745e-38
0.074697144 0.730443 1.175482 1.1427576e-38
0.088503815 0.73628229 1.1848792 5.8054408e-39
0.12711619 0.730443 1.175482 7.8297888e-39
0.14221907 0.72725797 1.1703564 5.7118131e-39
0.14546286 0.730443 1.175482 7.0025519e-39
0.64578193 0.7330972 1.1797534 8.9419195e-39
0.65367335 0.7330972 1.1797534 8.0217485e-39
-0.49569714 0.71256703 1.1419139 7.0032581e-39
-0.4617362 0.71522987 1.1461811 5.1604315e-39
-0.44746479 0.72108805 1.1555691 4.8813335e-39
-0.39956099 0.71842521 1.1513017 7.4595896e-39
0.069455236 0.73280442 1.1743449 1.2158642e-38
0.074697144 0.73280442 1.1743449 1.1977147e-38
0.088822864 0.74132538 1.1880001 5.5302931e-39
0.12973714 0.73280442 1.1743449 7.3666751e-39
0.14221907 0.72960901 1.1692243 6.1724661e-39
0.64578193 0.7354672 1.1786121 9.2188567e-39
0.65130669 0.73280442 1.1743449 7.7451111e-39
-0.49569714 0.71486324 1.1408081 6.7259622e-39
-0.4617362 0.7175346 1.1450711 5.3448228e-39
-0.45917812 0.7175346 1.1450711 5.6167209e-39
-0.45662001 0.7175346 1.1450711 5.9855035e-39
-0.45406193 0.7175346 1.1450711 5.7125137e-39
-0.45520192 0.72341168 1.1544501 5.7125137e-39
-0.45262289 0.72341168 1.1544501 4.9749361e-39
-0.45004383 0.72341168 1.1544501 5.2515229e-39
-0.44746479 0.72341168 1.1544501 5.5281224e-39
-0.44488573 0.72341168 1.1544501 6.9110569e-39
-0.4423067 0.72341168 1.1544501 6.912489e-39
-0.43972763 0.72341168 1.1544501 5.5295546e-39
-0.43553433 0.72074026 1.1501869 5.3448102e-39
-0.4329648 0.72074026 1.1501869 5.4370058e-39
-0.43039528 0.72074026 1.1501869 5.7135927e-39
-0.42782575 0.72074026 1.1501869 6.2667665e-39
-0.42525622 0.72074026 1.1501869 6.1763785e-39
-0.42425337 0.72341168 1.1544501 5.9919873e-39
-0.42167431 0.72341168 1.1544501 5.8083247e-39
-0.41909525 0.72341168 1.1544501 5.5317378e-39
-0.41497812 0.72074026 1.1501869 5.43811e-39
-0.41240859 0.72074026 1.1501869 5.5303057e-39
-0.40983906 0.72074026 1.1501869 6.2653372e-39
-0.40726954 0.72074026 1.1501869 6.4497284e-39
-0.40470001 0.72074026 1.1501869 7.0007372e-39
-0.40213051 0.72074026 1.1501869 7.0007372e-39
-0.39956099 0.72074026 1.1501869 8.3833185e-39
0.069707617 0.7378372 1.1774707 1.1790581e-38
0.074968576 0.7378372 1.1774707 1.1334652e-38
0.088822864 0.74371421 1.1868496 6.0820277e-39
0.12917143 0.73196012 1.168092 7.5531893e-39
0.13178097 0.73196012 1.168092 7.4599175e-39
0.13439049 0.73196012 1.168092 7.6443087e-39
0.13700001 0.73196012 1.168092 7.8341104e-39
0.13960953 0.73196012 1.168092 7.4653279e-39
0.64594573 0.74104285 1.1825866 7.099795e-39
0.65130669 0.73516577 1.1732076 5.7175738e-39
-0.49569714 0.71715939 1.1397023 6.4493753e-39
0.074968576 0.74020714 1.1763294 1.142468e-38
0.088822864 0.74610311 1.1856992 5.9912712e-39
0.64594573 0.7434231 1.1814402 7.3753001e-39
0.65104288 0.74020714 1.1763294 7.9274201e-39
-0.49569714 0.7194556 1.1385965 6.264984e-39
0.074968576 0.74257714 1.1751881 1.0689283e-38
0.088822864 0.74849194 1.1845489 6.1749394e-39
0.64594573 0.74580336 1.180294 6.9164925e-39
0.65104288 0.74257714 1.1751881 5.6239614e-39
-0.49754953 0.72444892 1.1417414 5.8962015e-39
0.074968576 0.74494708 1.1740468 1.0597087e-38
0.088822864 0.75088078 1.1833984 6.3593307e-39
0.64594573 0.74818367 1.1791477 7.5600697e-39
0.65104288 0.74494708 1.1740468 4.7941573e-39
-0.50162482 0.73270625 1.149974 5.8958638e-39
0.074968576 0.74731708 1.1729054 1.0045711e-38
0.088822864 0.75326967 1.182248 6.5437219e-39
0.64594573 0.75056392 1.1780014 7.6522653e-39
0.65104288 0.74731708 1.1729054 3.4115914e-39
-0.50162482 0.73502988 1.148855 5.4338193e-39
0.067077145 0.74968708 1.1717641 9.94954e-39
0.076217145 0.76217276 1.1912794 9.9520679e-39
0.088822864 0.75565851 1.1810976 6.7277572e-39
0.64594573 0.75294423 1.1768552 8.0196031e-39
0.65122956 0.75294423 1.1768552 1.0140425e-38
-0.50162482 0.73735356 1.147736 4.8831636e-39
0.067077145 0.75205702 1.1706228 1.0225068e-38
0.074697144 0.74933416 1.1663846 9.4914583e-39
0.088822864 0.75804734 1.1799471 7.0036211e-39
0.64594573 0.75532448 1.1757089 8.2039943e-39
0.65122956 0.75532448 1.1757089 9.3113929e-39
-0.50162482 0.73967719 1.1466169 4.6065795e-39
0.067077145 0.75442702 1.1694815 9.948859e-39
0.074697144 0.75169557 1.1652473 9.1237548e-39
0.088822864 0.76043624 1.1787968 7.0043441e-39
0.65122956 0.75770473 1.1745626 8.8497113e-39
-0.50162482 0.74200082 1.1454979 3.8708124e-39
0.067077145 0.75679696 1.1683402 1.0318342e-38
0.074697144 0.75405693 1.1641102 8.8471679e-39
0.089588568 0.76940113 1.1877984 7.3731295e-39
0.65122956 0.76008505 1.1734164 8.2047048e-39
-0.49569714 0.73552889 1.130856 3.5009719e-39
0.067077145 0.75916696 1.1671989 1.0318342e-38
0.074968576 0.75916696 1.1671989 8.2939913e-39
0.08920572 0.76851225 1.181567 7.5578738e-39
0.65357715 0.76521391 1.1764959 7.7444609e-39
-0.49499145 0.74058229 1.1339719 4.8824027e-39
0.067368574 0.76484561 1.1711237 1.0687112e-38
0.074968576 0.76153696 1.1660576 7.8333537e-39
0.08920572 0.7709114 1.1804116 8.0170541e-39
0.65357715 0.7676028 1.1753455 7.3756728e-39
-0.4931486 0.74012125 1.1286445 4.8824027e-39
0.067368574 0.76722586 1.1699774 1.0963714e-38
0.074968576 0.76390696 1.1649163 7.8333537e-39
0.08920572 0.77331054 1.1792562 8.2014454e-39
0.6563943 0.77331054 1.1792562 6.5473373e-39
-0.4931486 0.7424174 1.1275387 4.9745983e-39
0.067368574 0.76960611 1.1688312 1.1331415e-38
0.074968576 0.7662769 1.1637748 8.017745e-39
0.089588568 0.77903891 1.1831571 8.1103288e-39
0.6592114 0.77903891 1.1831571 4.6119745e-39
-0.49499145 0.74749655 1.1306422 4.1444972e-39
0.067368574 0.77198642 1.1676849 1.0963712e-38
0.075294293 0.77198642 1.1676849 7.4656628e-39
0.08920572 0.77810884 1.1769456 8.2943599e-39
0.65373147 0.77810884 1.1769456 7.2834772e-39
-0.4972029 0.75315112 1.1345786 4.0533581e-39
0.067368574 0.77436668 1.1665387 1.0872235e-38
0.075294293 0.77436668 1.1665387 7.1887158e-39
0.08920572 0.78050804 1.1757902 8.6616977e-39
0.65373147 0.78050804 1.1757902 5.2555293e-39
-0.4972029 0.75546616 1.1334637 3.5001717e-39
0.067368574 0.77674693 1.1653924 1.1056629e-38
0.075294293 0.77674693 1.1653924 6.7270188e-39
0.08920572 0.78290713 1.1746348 9.4878584e-39
0.65373147 0.78290713 1.1746348 4.5182921e-39
-0.4964667 0.76058996 1.1365459 7.0036056e-39
0.067368574 0.77912724 1.1642461 1.124102e-38
0.075294293 0.77912724 1.1642461 6.3578831e-39
0.086914286 0.78867668 1.1785158 3.1252781e-39
0.65373147 0.78530633 1.1734794 3.6889042e-39
-0.49830002 0.76573086 1.1396197 6.6344756e-39
0.067368574 0.78150749 1.1630998 1.1148824e-38
0.075294293 0.78150749 1.1630998 5.4352262e-39
0.08728572 0.79446685 1.182387 3.2174738e-39
0.65106863 0.78770548 1.1723241 9.772371e-39
-0.49830002 0.76806307 1.1384966 6.4500843e-39
0.067368574 0.78388774 1.1619536 1.1056989e-38
0.075294293 0.78388774 1.1619536 5.801122e-39
0.08728572 0.79688662 1.1812217 3.3096694e-39
0.65106863 0.79010463 1.1711687 9.3110426e-39
-0.49830002 0.77039528 1.1373734 6.1727884e-39
0.067611434 0.78910244 1.1649919 1.1056629e-38
0.075565718 0.78910244 1.1649919 4.8813335e-39
0.08728572 0.79930639 1.1800563 3.4940606e-39
0.65106863 0.79250377 1.1700133 8.7578786e-39
-0.49830002 0.77272749 1.1362503 6.0813116e-39
0.067611434 0.79149133 1.1638414 1.1334655e-38
0.075565718 0.79149133 1.1638414 4.3306639e-39
0.08728572 0.8017261 1.1788911 3.95395e-39
0.65386289 0.79831451 1.1738745 8.0217513e-39
-0.49830002 0.7750597 1.1351272 5.435236e-39
0.067611434 0.79388022 1.162691 1.1609449e-38
0.075565718 0.79388022 1.162691 3.7764237e-39
0.08728572 0.80414581 1.1777258 3.6788022e-39
0.65386289 0.80072391 1.1727141 7.3774707e-39
-0.49830002 0.77739197 1.134004 5.3426802e-39
0.067611434 0.79626906 1.1615405 1.142685e-38
0.075891435 0.79970121 1.1665472 3.8678654e-39
0.08728572 0.80656558 1.1765605 3.8639124e-39
0.65386289 0.80313337 1.1715539 6.917203e-39
-0.50050002 0.78316665 1.1378826 4.7913183e-39
0.067902863 0.80210042 1.1653918 1.1885671e-38
0.073228575 0.80210042 1.1653918 9.4918241e-39
0.08728572 0.80898535 1.1753953 4.1404992e-39
0.65386289 0.80554283 1.1703935 6.3636467e-39
-0.50453335 0.7918393 1.1459152 4.606927e-39
0.073228575 0.80449951 1.1642364 9.2149219e-39
0.087595239 0.81428242 1.1783938 4.6014872e-39
0.65397143 0.81140506 1.17423 7.4678712e-39
-0.50453335 0.79420066 1.144778 3.9633555e-39
0.073228575 0.80689871 1.163081 8.754259e-39
0.087595239 0.81671071 1.1772244 4.9702823e-39
0.65397143 0.81382483 1.1730647 6.3614985e-39
-0.5023334 0.79308873 1.138654 2.9495721e-39
0.073542856 0.8127712 1.1669124 8.3866004e-39
0.088709526 0.82955921 1.1910155 4.6969423e-39
0.65397143 0.8162446 1.1718993 4.7041477e-39
-0.49789998 0.79253674 1.1333702 4.6990904e-39
0.065520003 0.81518066 1.1657522 9.1201423e-39
0.073542856 0.81518066 1.1657522 8.5695273e-39
0.088338099 0.82853472 1.1848493 4.8820524e-39
0.65629053 0.82156742 1.1748856 3.9651436e-39
-0.49789998 0.79487926 1.1322421 4.8823901e-39
0.065520003 0.81759012 1.1645918 8.8446498e-39
0.073542856 0.81759012 1.1645918 8.3851612e-39
0.088338099 0.83098364 1.1836699 5.4352262e-39
0.65128577 0.82108402 1.1695688 8.6682095e-39
-0.49972382 0.80014205 1.1352574 4.3295975e-39
0.065520003 0.81999958 1.1634315 9.0276033e-39
0.073542856 0.81999958 1.1634315 7.2780696e-39
0.087966673 0.8299284 1.1775187 5.2508349e-39
0.64851427 0.81999958 1.1634315 8.6678213e-39
-0.50191236 0.80600768 1.139092 4.3295975e-39
0.065520003 0.82240897 1.1622711 8.844647e-39
0.073542856 0.82240897 1.1622711 6.4494061e-39
0.087966673 0.832367 1.1763444 5.8000528e-39
0.64851427 0.82240897 1.1622711 7.4678684e-39
-0.50191236 0.80836904 1.1379548 4.0523015e-39
0.065520003 0.82481843 1.1611109 9.2127134e-39
0.073542856 0.82481843 1.1611109 5.8954882e-39
0.087966673 0.83480561 1.1751699 6.261747e-39
0.64851427 0.82481843 1.1611109 7.4696663e-39
-0.50191236 0.81073046 1.1368177 3.5906073e-39
0.065520003 0.82722789 1.1599505 8.8453729e-39
0.073542856 0.82722789 1.1599505 5.2508601e-39
0.087966673 0.83724421 1.1739956 6.8149236e-39
0.64851427 0.82722789 1.1599505 7.8380957e-39
-0.50191236 0.81309187 1.1356804 3.132506e-39
0.065520003 0.82963735 1.1587901 9.028325e-39
0.073542856 0.82963735 1.1587901 4.6050998e-39
0.087966673 0.83968288 1.1728213 6.8149236e-39
0.64851427 0.82963735 1.1587901 7.7455147e-39
-0.50191236 0.81545329 1.1345433 2.2105469e-39
0.065520003 0.83204681 1.1576298 8.8442939e-39
0.073857144 0.83560252 1.162577 3.77573e-39
0.085620001 0.84567714 1.1765939 3.5956268e-39
0.64851427 0.83204681 1.1576298 6.0885241e-39
-0.5037362 0.82078636 1.1375245 2.026506e-39
0.065800004 0.83802229 1.1614118 8.8435806e-39
0.074119054 0.840994 1.1655302 3.4062034e-39
0.085620001 0.84812605 1.1754146 4.2402801e-39
0.64851427 0.83445621 1.1564695 6.0867094e-39
-0.50110573 0.82315636 1.1363832 6.264984e-39
0.065800004 0.840442 1.1602465 8.7528241e-39
0.074433342 0.84699875 1.1692981 2.3931459e-39
0.086339995 0.85772765 1.1841096 4.3321128e-39
0.64583999 0.83686566 1.1553092 6.4533438e-39
-0.50110573 0.82552636 1.1352419 5.7146871e-39
0.065800004 0.84286177 1.1590812 9.3045587e-39
0.074433342 0.84943736 1.1681237 1.3786086e-39
0.086339995 0.86019719 1.1829203 4.240636e-39
0.64583999 0.83927512 1.1541488 4.9785668e-39
-0.50110573 0.82789636 1.1341006 5.2522965e-39
0.065800004 0.84528148 1.1579159 9.1216066e-39
0.074433342 0.85187596 1.1669494 8.2652927e-40
0.0867 0.86626369 1.1866584 4.7008953e-39
0.64591432 0.84528148 1.1579159 8.2075789e-39
-0.50328285 0.83387351 1.1378816 4.9753592e-39
0.065800004 0.84770125 1.1567507 9.2127162e-39
0.074433342 0.85431463 1.1657749 9.1835496e-40
0.0867 0.86874354 1.1854643 5.1618735e-39
0.64591432 0.84770125 1.1567507 8.0217485e-39
-0.50328285 0.83625376 1.1367354 4.7927434e-39
0.065800004 0.85012102 1.1555853 8.8450197e-39
0.074747622 0.86037064 1.1695179 5.5101298e-40
0.0867 0.87122333 1.18427 5.0703967e-39
0.6482048 0.85313565 1.1596831 7.7444553e-39
-0.50509721 0.84165728 1.1396828 4.0555287e-39
0.065800004 0.85254073 1.15442 9.487878e-39
0.074119054 0.85556394 1.1585137 1.0101905e-39
0.0867 0.87370312 1.1830758 5.3462647e-39
0.6482048 0.85556394 1.1585137 7.4693132e-39
-0.50509721 0.84404612 1.1385323 3.9622639e-39
0.065800004 0.8549605 1.1532547 9.3042056e-39
0.074119054 0.85799229 1.1573442 7.3468397e-40
0.0867 0.87618291 1.1818815 5.6214097e-39
0.6482048 0.85799229 1.1573442 7.1927263e-39
-0.50727433 0.85008341 1.1422844 3.9633555e-39
0.066033341 0.86042058 1.1561749 9.486799e-39
0.074433342 0.8640691 1.1610775 1.1938615e-39
0.0867 0.87866271 1.1806874 5.3462647e-39
0.65095335 0.8640691 1.1610775 6.9164925e-39
-0.50244576 0.84882385 1.1362315 4.3317625e-39
0.066033341 0.86284894 1.1550055 8.9347098e-39
0.074433342 0.86650771 1.159903 4.5917748e-40
0.086339995 0.87748379 1.1745955 5.7150472e-39
0.6537019 0.87016636 1.1648005 6.5484331e-39
-0.50244576 0.85121268 1.1350811 4.3299576e-39
0.066033341 0.86527729 1.153836 9.3016973e-39
0.074433342 0.86894631 1.1587287 1.0101905e-39
0.086339995 0.87995327 1.1734062 5.8994385e-39
0.65098381 0.87261528 1.1636212 6.8217704e-39
0.6537019 0.87261528 1.1636212 5.1647854e-39
-0.50244576 0.85360152 1.1339307 3.960815e-39
0.066033341 0.86770558 1.1526666 9.1198172e-39
0.074433342 0.87138498 1.1575543 4.5917748e-40
0.0867 0.8861022 1.1771047 6.2678609e-39
0.65098381 0.87506419 1.1624418 5.7161571e-39
-0.50461143 0.85968 1.1376629 4.0530106e-39
0.066033341 0.87013388 1.1514971 9.4871521e-39
0.074433342 0.87382358 1.1563799 1.3775324e-39
0.0867 0.88858199 1.1759105 6.544445e-39
0.65098381 0.87751311 1.1612625 5.6236055e-39
-0.50461143 0.86207914 1.1365075 4.0530106e-39
0.066033341 0.87256223 1.1503278 9.3045587e-39
0.074433342 0.87626219 1.1552055 4.5918028e-40
0.0867 0.89106178 1.1747162 6.9132275e-39
0.65098381 0.87996203 1.1600831 4.7037974e-39
-0.50461143 0.86447835 1.1353521 3.4090901e-39
0.066313341 0.87870085 1.1540312 9.5797009e-39
0.074433342 0.87870085 1.1540312 1.1938615e-39
0.0867 0.89354157 1.1735221 7.0976188e-39
0.65372097 0.88612121 1.1637766 4.149532e-39
-0.50677717 0.87059796 1.1390646 2.4864276e-39
0.066313341 0.88113946 1.1528568 9.3960355e-39
0.074433342 0.88113946 1.1528568 7.3468397e-40
0.087119997 0.90036196 1.178007 7.28201e-39
0.65099144 0.88858044 1.1625923 8.2061425e-39
-0.50677717 0.87300742 1.1379043 2.8552157e-39
0.066313341 0.88357806 1.1516824 9.4871521e-39
0.074433342 0.88357806 1.1516824 1.3775324e-39
0.087119997 0.90285379 1.1768069 7.6507925e-39
0.65099144 0.89103961 1.1614081 8.2054111e-39
-0.50894284 0.8791579 1.1416019 2.7630145e-39
0.066313341 0.88601673 1.150508 9.2112911e-39
0.071726672 0.88601673 1.150508 9.8609695e-39
0.0867 0.90098101 1.1699394 7.8341048e-39
0.65099144 0.8934989 1.1602237 7.3749441e-39
-0.50894284 0.88157773 1.1404366 2.7630145e-39
0.066313341 0.88845533 1.1493337 9.3038399e-39
0.071726672 0.88845533 1.1493337 1.0226515e-38
0.0867 0.90346086 1.1687453 8.1099686e-39
0.65099144 0.89595807 1.1590395 7.1909088e-39
-0.50894284 0.88399744 1.1392713 2.301686e-39
0.066313341 0.89089394 1.1481593 9.3960355e-39
0.071726672 0.89089394 1.1481593 9.3996382e-39
0.0867 0.90594065 1.167551 8.5709468e-39
0.65371716 0.90217888 1.162703 7.2841862e-39
-0.50894284 0.88641715 1.138106 2.2094931e-39
0.071726672 0.89333254 1.1469849 9.3985592e-39
0.0867 0.90842044 1.1663568 8.9397265e-39
0.65644288 0.90842044 1.1663568 6.2721895e-39
-0.50894284 0.88883692 1.1369407 1.7485122e-39
0.071726672 0.89577115 1.1458105 8.5713195e-39
0.083947621 0.91090024 1.1651626 1.4708029e-39
0.65371716 0.90711796 1.1603245 3.9705736e-39
-0.50894284 0.89125669 1.1357754 1.5641209e-39
0.071726672 0.89820981 1.1446362 8.6620732e-39
0.083947621 0.91338003 1.1639683 1.4708029e-39
0.65097618 0.90958744 1.1591352 6.9147003e-39
-0.50894284 0.8936764 1.1346102 1.2882529e-39
0.072029524 0.90445119 1.1482898 7.9270263e-39
0.083947621 0.91585982 1.1627742 1.7470268e-39
0.64826196 0.90825415 1.153118 5.9005427e-39
-0.5807724 1.0225664 1.2934133 1.8407078e-39
0.072332382 0.91071337 1.1519337 8.0192219e-39
0.084354281 0.92278838 1.167207 1.5640733e-39
0.64826196 0.91071337 1.1519337 5.8090562e-39
-0.5807724 1.0253277 1.2920835 1.7485122e-39
0.072332382 0.9131726 1.1507493 8.2950886e-39
0.084354281 0.92528015 1.166007 2.3920291e-39
0.64826196 0.9131726 1.1507493 3.6896455e-39
-0.57770765 1.028089 1.2907538 3.8690117e-39
0.072635233 0.91946548 1.1543782 8.0195751e-39
0.084354281 0.92777205 1.164807 2.5767749e-39
0.64553237 0.91563183 1.1495651 7.4678684e-39
-0.57770765 1.0308502 1.2894241 3.0417677e-39
0.072635233 0.92193496 1.1531889 8.2028929e-39
0.084702857 0.9341079 1.1684153 3.2203604e-39
0.64553237 0.91809106 1.1483808 7.099795e-39
-0.57770765 1.0336115 1.2880943 2.9474057e-39
-0.50750005 0.91284156 1.1375898 3.778223e-39
0.072635233 0.9244045 1.1519997 7.742635e-39
0.085051432 0.94046438 1.1720138 3.773907e-39
0.64282954 0.91669583 1.1423931 6.9154037e-39
-0.50535715 0.91141546 1.1316171 3.6842154e-39
0.072938092 0.93073875 1.1556089 7.3742057e-39
0.0854 0.94684148 1.1756022 4.0512127e-39
0.64282954 0.91914475 1.1412138 6.7324516e-39
-0.50535715 0.91384375 1.1304476 3.6835092e-39
0.072938092 0.93321854 1.1544147 7.0958111e-39
0.0854 0.94936419 1.1743872 4.4210644e-39
0.64012671 0.91771877 1.1352412 6.6384609e-39
-0.50535715 0.9162721 1.1292782 3.7757048e-39
0.064412385 0.93181306 1.1484319 8.5705838e-39
0.072938092 0.93569839 1.1532204 6.8188613e-39
0.0854 0.95188689 1.1731724 4.7891379e-39
0.64012671 0.92015743 1.1340667 6.3636817e-39
-0.50357151 0.91545415 1.1241226 3.4991179e-39
0.064143814 0.93038708 1.1424593 8.7535304e-39
0.072938092 0.93817818 1.1520263 6.2667665e-39
0.0854 0.9544096 1.1719575 4.7891379e-39
0.64282954 0.9264915 1.1376758 5.9023476e-39
-0.50142854 0.91396803 1.1181786 2.2098407e-39
0.064143814 0.93284631 1.141275 9.2159532e-39
0.072938092 0.94065797 1.1508321 6.0812962e-39
0.0854 0.95693231 1.1707426 4.8813335e-39
0.64553237 0.93284631 1.141275 4.3361191e-39
-0.49928576 0.91246134 1.1122447 2.1172975e-39
0.064412385 0.93922162 1.1448642 9.3074426e-39
0.072938092 0.94313776 1.1496378 5.2547726e-39
0.0854 0.95945501 1.1695278 5.2508349e-39
0.64549428 0.93922162 1.1448642 6.2704141e-39
-0.49928576 0.91486049 1.1110893 1.7485122e-39
0.064412385 0.9416911 1.1436749 9.0326536e-39
0.072938092 0.94561756 1.1484436 5.2533236e-39
0.0854 0.96197772 1.1683129 5.6188986e-39
0.64818573 0.94561756 1.1484436 5.4402736e-39
-0.49928576 0.91725963 1.109934 1.8407078e-39
0.064412385 0.94416058 1.1424856 9.3067266e-39
0.073291428 0.95269024 1.152807 4.2409766e-39
0.085051432 0.96056378 1.1623343 5.7118131e-39
0.64856005 0.95269024 1.152807 7.0079497e-39
0.64818573 0.94809741 1.1472495 4.2420808e-39
0.65093815 0.94809741 1.1472495 3.6900477e-39
-0.50088578 0.92755282 1.1182961 4.4225358e-39
0.064412385 0.94663012 1.1412964 9.6744301e-39
0.073291428 0.95518208 1.151607 4.9749361e-39
0.085051432 0.96307617 1.1611245 5.5288511e-39
0.64543337 0.95057726 1.1460552 6.7328019e-39
-0.50088578 0.92997259 1.1171309 4.3321156e-39
0.064680949 0.95305705 1.144861 9.6747804e-39
0.073291428 0.95767385 1.150407 3.5938317e-39
0.085051432 0.96558857 1.1599145 5.8965546e-39
0.64543337 0.95305705 1.144861 6.2721867e-39
-0.50692475 0.94363391 1.1294204 3.9640618e-39
0.064680949 0.95553684 1.1436667 9.6776573e-39
0.073291428 0.96016568 1.149207 3.5927177e-39
0.0854 0.97206861 1.1634533 6.0809459e-39
0.64543337 0.95553684 1.1436667 5.9963187e-39
-0.5560714 1.0322711 1.231024 1.7506604e-39
0.064680949 0.95801663 1.1424725 1.0596011e-38
0.070525713 0.96265757 1.148007 8.2018335e-39
0.082600005 0.97459131 1.1622385 3.3190553e-39
0.64543337 0.95801663 1.1424725 6.0881584e-39
-0.54857141 1.0209844 1.2131512 2.0261557e-39
0.064680949 0.96049643 1.1412783 1.0689283e-38
0.070525713 0.96514934 1.146807 7.7423099e-39
0.082600005 0.97711402 1.1610236 3.7800208e-39
0.65123999 0.96913767 1.151546 6.3643851e-39
-0.54315907 1.0189555 1.2063588 3.9622639e-39
0.064680949 0.96297622 1.1400841 1.1424683e-38
0.070525713 0.96764112 1.145607 8.1089092e-39
0.082600005 0.97963673 1.1598088 4.1484754e-39
0.65123999 0.97163975 1.150341 5.7197262e-39
-0.54315907 1.0215795 1.2050952 3.0403076e-39
0.064680949 0.96545607 1.1388899 1.1516885e-38
0.070525713 0.97013295 1.144407 7.6490353e-39
0.082600005 0.9821595 1.1585939 4.3331974e-39
0.64846289 0.97414184 1.1491361 5.6257537e-39
-0.50844669 0.96391666 1.1329716 3.8686193e-39
0.06499429 0.97262484 1.143207 1.1056276e-38
0.070525713 0.97262484 1.143207 7.6475808e-39
0.082993336 0.98937118 1.1628904 4.4250371e-39
0.64846289 0.97664398 1.1479311 4.7034443e-39
-0.50632668 0.96235693 1.1270635 3.7757048e-39
0.061928574 0.97041571 1.1365014 7.2780443e-39
0.070525713 0.97511661 1.142007 7.0047449e-39
0.083330475 0.9959352 1.1663886 4.5172229e-39
0.64846289 0.97914612 1.1467261 5.0714911e-39
-0.50632668 0.96481609 1.1258792 3.2250492e-39
0.061928574 0.9728955 1.1353073 7.6453905e-39
0.070525713 0.97760844 1.140807 5.9894916e-39
0.083330475 0.99848026 1.165163 4.5172229e-39
0.64568573 0.98164821 1.1455212 6.7317229e-39
-0.50632668 0.96727538 1.1246948 2.6715251e-39
0.061928574 0.97537529 1.1341131 7.6471954e-39
0.070525713 0.98010027 1.139607 5.251579e-39
0.083330475 1.0010253 1.1639374 5.0693149e-39
0.64568573 0.98415035 1.1443162 6.7317285e-39
-0.50632668 0.96973455 1.1235106 2.5793294e-39
0.061928574 0.97785515 1.1329188 7.8308804e-39
0.070525713 0.98259211 1.138407 3.9618883e-39
0.083330475 1.0035703 1.1627119 5.6214097e-39
0.64568573 0.98665249 1.1431112 6.5476876e-39
-0.50632668 0.97219378 1.1223263 2.0254494e-39
0.061928574 0.98033494 1.1317246 7.5568046e-39
0.070525713 0.98508394 1.137207 3.4094657e-39
0.083330475 1.0061153 1.1614863 5.6206866e-39
0.64568573 0.98915458 1.1419063 5.2584033e-39
-0.50632668 0.97465301 1.1211419 2.0254494e-39
0.062228575 0.98757577 1.1360071 7.8319468e-39
0.070525713 0.98757577 1.1360071 3.6856798e-39
0.083330475 1.0086603 1.1602606 5.4370184e-39
0.65410006 1.0045795 1.1555665 5.4427946e-39
-0.50632668 0.97711217 1.1199577 1.6563166e-39
0.062228575 0.9900676 1.134807 7.9241424e-39
0.070525713 0.9900676 1.134807 2.579705e-39
0.082993336 1.0071143 1.1543459 6.2642554e-39
0.65410006 1.0071143 1.1543459 5.7190255e-39
-0.50632668 0.9795714 1.1187733 1.1978552e-39
0.062228575 0.99255937 1.133607 8.0152619e-39
0.070525713 0.99255937 1.133607 2.210177e-39
0.082600005 1.0048639 1.14766 6.3582517e-39
0.65410006 1.009649 1.1531252 5.9016147e-39
-0.50632668 0.98203063 1.1175891 9.2126826e-40
0.062228575 0.99505121 1.1324069 8.0159849e-39
0.070817143 0.99916303 1.1370865 1.2900256e-39
0.082600005 1.0073866 1.1464452 6.266056e-39
0.65675718 1.0162954 1.1565838 4.8899963e-39
-0.50844669 0.98861182 1.1210791 1.2900508e-39
0.062485714 1.0016651 1.1358815 8.476247e-39
0.07110858 1.0057873 1.1405559 1.5640733e-39
0.082600005 1.0099093 1.1452303 6.3582488e-39
0.65393239 1.0188404 1.1553581 6.0870794e-39
-0.51056671 0.99521375 1.1245594 1.1978552e-39
0.062485714 1.0041673 1.1346766 8.3844073e-39
0.071400002 1.012432 1.1440154 8.2759566e-40
0.082993336 1.0172532 1.1494632 6.9092646e-39
0.65393239 1.0213854 1.1541325 4.8863908e-39
-0.51056671 0.9976936 1.1233652 1.5644713e-39
0.062485714 1.0066694 1.1334716 8.936142e-39
0.071400002 1.0149547 1.1428006 9.1871369e-40
0.083330475 1.0239305 1.1529069 6.9092646e-39
0.65393239 1.0239305 1.1529069 3.8740367e-39
-0.51056671 1.0001733 1.1221709 1.4722756e-39
0.062742859 1.0133245 1.1369262 8.6606383e-39
0.071400002 1.0174775 1.1415856 3.6734619e-40
0.083330475 1.0264755 1.1516812 7.0014603e-39
0.65128672 1.0223227 1.1470219 4.3343058e-39
-0.51027429 1.0075103 1.126407 3.132513e-39
0.062742859 1.015837 1.1357162 8.6606439e-39
0.071400002 1.0200001 1.1403707 4.5917748e-40
0.080505721 1.0290205 1.1504556 2.4838744e-39
0.65128672 1.0248573 1.1458012 5.2562677e-39
-0.51027429 1.0100021 1.1252071 2.8566324e-39
0.062742859 1.0183493 1.1345063 8.4776819e-39
0.071400002 1.0225229 1.1391559 2.7553872e-40
0.080505721 1.0315655 1.14923 3.2203604e-39
0.61739999 1.0225229 1.1391559 5.2551859e-39
0.62020004 1.0225229 1.1391559 5.2551859e-39
0.62300003 1.0225229 1.1391559 5.2558922e-39
0.63140005 1.0225229 1.1391559 5.7150725e-39
0.63420004 1.0225229 1.1391559 5.7143466e-39
0.63700002 1.0225229 1.1391559 7.2816723e-39
0.6428467 1.027392 1.1445806 6.9164925e-39
0.65128672 1.027392 1.1445806 5.1640665e-39
-0.51027429 1.012494 1.124007 2.8580645e-39
0.062742859 1.0208617 1.1332964 8.9375685e-39
0.071400002 1.0250456 1.137941 1.2867984e-39
0.080505721 1.0341105 1.1480044 3.4051244e-39
0.33740002 1.0250456 1.137941 5.7132424e-39
0.34020001 1.0250456 1.137941 5.4366555e-39
0.34299999 1.0250456 1.137941 4.9760277e-39
0.34579998 1.0250456 1.137941 4.9760277e-39
0.3486 1.0250456 1.137941 5.2519139e-39
0.35139999 1.0250456 1.137941 5.5285008e-39
0.35420001 1.0250456 1.137941 4.8849363e-39
0.35699999 1.0250456 1.137941 4.3317625e-39
0.35980001 1.0250456 1.137941 4.7916364e-39
0.3626 1.0250456 1.137941 5.2526146e-39
0.36540002 1.0250456 1.137941 5.2522642e-39
0.3682 1.0250456 1.137941 5.1600686e-39
0.37100002 1.0250456 1.137941 4.975327e-39
0.37380001 1.0250456 1.137941 4.975327e-39
0.3766 1.0250456 1.137941 4.9749739e-39
0.37939999 1.0250456 1.137941 4.7905826e-39
0.3822 1.0250456 1.137941 4.6068948e-39
0.38499999 1.0250456 1.137941 4.6068948e-39
0.38780001 1.0250456 1.137941 4.3306639e-39
0.3906 1.0250456 1.137941 4.3306639e-39
0.39340001 1.0250456 1.137941 4.2384682e-39
0.3962 1.0250456 1.137941 4.1462726e-39
0.39900002 1.0250456 1.137941 4.2377494e-39
0.40180001 1.0250456 1.137941 4.329945e-39
0.40460002 1.0250456 1.137941 4.2380997e-39
0.40740001 1.0250456 1.137941 4.1459041e-39
0.41020003 1.0250456 1.137941 4.0533581e-39
0.41299999 1.0250456 1.137941 3.9611625e-39
0.41580001 1.0250456 1.137941 4.2377494e-39
0.41859999 1.0250456 1.137941 4.6065319e-39
0.42140001 1.0250456 1.137941 4.605841e-39
0.4242 1.0250456 1.137941 4.0526673e-39
0.42700002 1.0250456 1.137941 3.9611625e-39
0.4298 1.0250456 1.137941 3.9611625e-39
0.43259999 1.0250456 1.137941 3.9615128e-39
0.43540001 1.0250456 1.137941 4.1459041e-39
0.4382 1.0250456 1.137941 3.5938317e-39
0.44100001 1.0250456 1.137941 3.0406579e-39
0.4438 1.0250456 1.137941 2.9484623e-39
0.44660002 1.0250456 1.137941 3.1328535e-39
0.44939998 1.0250456 1.137941 2.948112e-39
0.4522 1.0250456 1.137941 3.1325032e-39
0.45499998 1.0250456 1.137941 3.4995061e-39
0.4578 1.0250456 1.137941 3.2229192e-39
0.46059999 1.0250456 1.137941 2.7637207e-39
0.46340001 1.0250456 1.137941 4.2388508e-39
0.46842003 1.0299268 1.1433599 4.7898792e-39
0.47460002 1.0250456 1.137941 6.4493781e-39
0.4774 1.0250456 1.137941 5.7154256e-39
0.48020002 1.0250456 1.137941 5.7154256e-39
0.48300001 1.0250456 1.137941 6.0835047e-39
0.4858 1.0250456 1.137941 6.5444828e-39
0.48860002 1.0250456 1.137941 6.8206914e-39
0.49140003 1.0250456 1.137941 6.2675176e-39
0.49420002 1.0250456 1.137941 6.082776e-39
0.49700004 1.0250456 1.137941 6.1749716e-39
0.49980003 1.0250456 1.137941 6.2660981e-39
0.50259995 1.0250456 1.137941 6.1739024e-39
0.5054 1.0250456 1.137941 6.8185362e-39
0.50819999 1.0250456 1.137941 7.0029274e-39
0.5134334 1.0299268 1.1433599 6.911801e-39
0.51624668 1.0299268 1.1433599 6.8196053e-39
0.60064673 1.0299268 1.1433599 4.2417403e-39
0.6006 1.0250456 1.137941 3.8729577e-39
0.60339999 1.0250456 1.137941 3.6885665e-39
0.60619998 1.0250456 1.137941 3.7800587e-39
0.60900003 1.0250456 1.137941 3.3190805e-39
0.61180001 1.0250456 1.137941 2.9492428e-39
0.6146 1.0250456 1.137941 2.5804603e-39
0.62580001 1.0250456 1.137941 2.3960718e-39
