# .PCD v0.7 - Point Cloud Data file format
VERSION 0.7
FIELDS x y z rgb
SIZE 4 4 4 4
TYPE F F F F
COUNT 1 1 1 1
WIDTH 1034
HEIGHT 1
VIEWPOINT 0 0 0 1 0 0 0
POINTS 1034
DATA ascii
0.58473736 0.73231429 1.1814624 7.1905445e-39
0.59448761 0.73072726 1.1808947 7.2823884e-39
0.6072008 0.73451889 1.1842486 7.2823814e-39
0.61553144 0.73072726 1.1808947 7.2827415e-39
0.62633318 0.73231429 1.1814624 7.2827443e-39
0.63401288 0.73538935 1.1828119 7.2827443e-39
0.64363879 0.73337239 1.1818409 7.8352062e-39
0.65498859 0.73072726 1.1808947 5.7157885e-39
0.66156477 0.73072726 1.1808947 2.1230695e-39
0.088822864 0.74490863 1.1862745 5.898714e-39
0.091474287 0.74610305 1.1856992 8.7506773e-39
0.21267334 0.74580336 1.180294 9.0297641e-39
0.24767858 0.74520826 1.1805806 8.936851e-39
0.25428337 0.74520826 1.1805806 9.1208793e-39
0.2641905 0.74580336 1.180294 8.8453785e-39
0.27211618 0.74580336 1.180294 8.753543e-39
0.30381906 0.74580336 1.180294 8.753543e-39
0.38571811 0.74580336 1.180294 8.2014454e-39
0.43987721 0.74342316 1.1814404 8.2003776e-39
0.44516101 0.7434231 1.1814402 8.1085421e-39
0.45404738 0.74363953 1.1813362 8.0167024e-39
0.46533555 0.74363953 1.181336 8.0163451e-39
0.47554287 0.74342322 1.1814404 7.925227e-39
0.48478958 0.7434231 1.1814404 7.7412001e-39
0.49403626 0.74342316 1.1814404 7.7415574e-39
0.50460386 0.74342316 1.1814404 7.7412015e-39
0.51517147 0.74342316 1.1814404 7.557162e-39
0.52573907 0.74342316 1.1814404 7.5568103e-39
0.53498578 0.7434231 1.1814404 7.2816625e-39
0.54423243 0.74342316 1.1814404 7.2816597e-39
0.55480003 0.74342322 1.1814404 7.3738553e-39
0.5653677 0.74342316 1.1814404 7.189827e-39
0.57329333 0.7434231 1.1814404 7.1891067e-39
0.58593678 0.74376321 1.1812767 7.2823814e-39
0.5944286 0.74342316 1.1814404 7.1901927e-39
0.60763812 0.74223292 1.1820134 7.1905445e-39
0.61820579 0.7434231 1.1814402 7.1905431e-39
0.62481052 0.7434231 1.1814404 7.1905459e-39
0.63405716 0.74342316 1.1814404 7.2827471e-39
0.64426458 0.74363953 1.181336 7.7444441e-39
0.65122956 0.74580336 1.180294 1.1155699e-38
0.087682866 0.75489318 1.1847959 3.6853001e-39
0.091474287 0.75326967 1.182248 9.0279789e-39
0.24592 0.75506127 1.1813852 8.8450183e-39
0.25453717 0.75326961 1.1822481 8.8453757e-39
0.26293337 0.75406599 1.1818645 8.8450211e-39
0.30447239 0.75486225 1.1814811 8.569872e-39
0.33540574 0.75565851 1.1810976 8.753543e-39
0.44676575 0.75446409 1.1816728 8.2010909e-39
0.45438859 0.75356829 1.1821042 7.9255886e-39
0.46090668 0.75486225 1.1814811 7.8341062e-39
0.089397147 0.76895666 1.1846826 7.4653223e-39
0.091868579 0.76731265 1.1821446 9.3964012e-39
0.2164903 0.76755255 1.1820291 9.2127148e-39
0.22501145 0.76851225 1.181567 9.2130764e-39
0.23033716 0.76851225 1.181567 9.2127162e-39
0.25297147 0.76131481 1.1850331 9.1208807e-39
0.2875886 0.76851225 1.181567 8.9365007e-39
0.29557717 0.76851225 1.181567 8.9375755e-39
0.30223432 0.76851225 1.181567 8.9372252e-39
0.31421715 0.76851225 1.181567 8.5691517e-39
0.32220572 0.76851225 1.181567 8.6606383e-39
0.35815433 0.76731265 1.1821446 8.3854835e-39
0.36081716 0.76851225 1.181567 8.3858394e-39
0.44736004 0.76611316 1.1827224 8.1085365e-39
0.45401716 0.7661131 1.1827223 8.0166996e-39
0.49662289 0.76851225 1.181567 7.8341104e-39
0.5019486 0.76851225 1.181567 7.8341104e-39
0.63242859 0.76851225 1.181567 7.1905431e-39
0.6590572 0.76851225 1.181567 1.5673537e-39
0.66172004 0.76851225 1.181567 1.1082043e-39
0.086522862 0.77678275 1.1853536 3.1321277e-39
0.091868579 0.7709114 1.1804116 9.3045686e-39
0.20903431 0.7709114 1.1804116 9.3049119e-39
0.21569145 0.7709114 1.1804116 9.2130764e-39
0.22501145 0.7709114 1.1804116 8.8453715e-39
0.23433144 0.7709114 1.1804116 8.8453757e-39
0.24365145 0.7709114 1.1804116 9.1208807e-39
0.27693719 0.7709114 1.1804116 8.7528269e-39
0.28492573 0.7709114 1.1804116 8.8450197e-39
0.29557717 0.7709114 1.1804116 8.9372168e-39
0.30223432 0.7709114 1.1804116 8.8453855e-39
0.31421718 0.7709114 1.1804116 8.5691489e-39
0.3235372 0.7709114 1.1804116 8.5691587e-39
0.35815433 0.7709114 1.1804116 8.3858394e-39
0.36481148 0.7709114 1.1804116 8.2936438e-39
0.3714686 0.7709114 1.1804116 8.2936438e-39
0.44736004 0.7709114 1.1804116 8.0163381e-39
0.45534861 0.7709114 1.1804116 7.9241424e-39
0.46200576 0.7709114 1.1804116 7.9241424e-39
0.49529147 0.7709114 1.1804116 7.8337545e-39
0.50488389 0.77362061 1.1813267 8.0177842e-39
0.51447856 0.77294332 1.181098 7.7408372e-39
0.54455429 0.7709114 1.1804116 7.3738553e-39
0.55653715 0.7709114 1.1804116 7.3738553e-39
0.62444001 0.7709114 1.1804116 7.0976314e-39
0.63376004 0.7709114 1.1804116 7.0983502e-39
0.65913427 0.77497518 1.1817844 3.1357598e-39
0.66456008 0.77662951 1.1843175 1.7546359e-39
0.085699052 0.78255814 1.1836822 8.279558e-40
0.28748572 0.78385782 1.1808364 8.9372154e-39
0.45730287 0.78385782 1.1808364 7.9237949e-39
0.46532571 0.78385782 1.1808364 8.0159849e-39
0.49875429 0.78265309 1.1814165 7.7422763e-39
0.50544 0.78265309 1.1814165 7.741556e-39
0.51480001 0.78265309 1.1814165 7.6486387e-39
0.55625141 0.78385782 1.1808364 7.3731379e-39
0.56026286 0.78385782 1.1808364 7.3738553e-39
0.57898283 0.78385782 1.1808364 7.466051e-39
0.58566856 0.78385782 1.1808364 7.3742183e-39
0.5923543 0.78385782 1.1808364 7.0057987e-39
0.60438859 0.78385782 1.1808364 7.0979943e-39
0.61107427 0.78385782 1.1808364 7.1901899e-39
0.6592114 0.78144836 1.1819967 4.0559435e-39
0.66188574 0.78144836 1.1819967 2.2120309e-39
0.086838111 0.79728997 1.1810275 3.4047517e-39
0.079509534 0.80942577 1.1807327 1.0101905e-39
0.08355239 0.80942577 1.1807327 9.2194229e-41
0.66990006 0.80798078 1.1880882 2.7705997e-39
0.67260671 0.80798078 1.1880882 2.9539091e-39
0.079846673 0.81773525 1.1833906 8.2651947e-40
0.08290191 0.81873906 1.1895666 0
0.66990006 0.81041938 1.1869137 2.9549881e-39
0.67260671 0.81041938 1.1869137 2.9539091e-39
0.07894446 0.82179964 1.1814334 6.4320721e-40
0.084170952 0.82460785 1.1850755 1.3818568e-39
0.083162382 0.8356483 1.1864181 6.4465335e-40
0.085980006 0.84308493 1.1845019 2.2126951e-39
0.086339995 0.85772765 1.1841096 4.3321128e-39
0.086553715 0.86532301 1.1844476 4.3310352e-39
0.078442864 0.87494302 1.1824787 0
0.084298626 0.87444896 1.1835799 2.3963647e-39
0.083432376 0.8849957 1.1854069 1.8367099e-40
0.078822859 0.89537835 1.1804069 0
-0.40242192 0.23900649 1.191272 1.4750583e-38
-0.39254194 0.23981875 1.1953206 1.4659095e-38
-0.40220144 0.24275121 1.1905787 1.46591e-38
-0.39375225 0.24538636 1.1945423 1.5026799e-38
-0.4056105 0.25108129 1.1958164 1.355419e-38
-0.46133906 0.27915055 1.1996875 9.4940017e-39
-0.45904952 0.27915055 1.1996875 9.5861973e-39
-0.45509335 0.31866193 1.1995286 8.9411894e-39
-0.44464481 0.31866193 1.1995286 8.7571541e-39
-0.4833762 0.32810289 1.1994216 8.2943725e-39
-0.47522289 0.32810289 1.1994216 8.6656647e-39
-0.46474001 0.32810289 1.1994218 9.1255709e-39
-0.45467526 0.32442838 1.1989714 8.8493497e-39
-0.44653335 0.32495141 1.1987195 8.9408265e-39
-0.48328781 0.33880207 1.198709 7.9270235e-39
-0.47444281 0.3353301 1.1984782 8.9415412e-39
-0.46445206 0.33454174 1.1978877 9.1259338e-39
-0.45494711 0.33354253 1.198282 8.8497085e-39
-0.44556975 0.33521813 1.1973008 9.1255723e-39
-0.43354005 0.33865166 1.1987814 9.1255737e-39
-0.42536005 0.33865166 1.1987815 9.3092461e-39
-0.4148429 0.33865166 1.1987815 9.3099678e-39
-0.40432575 0.33865166 1.1987815 9.4018033e-39
-0.39661318 0.3384411 1.1988829 9.4932758e-39
-0.37628004 0.3375988 1.1992884 9.6776671e-39
-0.48411372 0.34413293 1.1933669 5.9916341e-39
-0.47519264 0.34438315 1.1952581 8.8489896e-39
-0.46556079 0.34536767 1.1961447 9.2177693e-39
-0.45713219 0.34761196 1.1986284 8.8497099e-39
-0.44547823 0.3452417 1.1960167 8.9411824e-39
-0.42528158 0.34356681 1.197108 9.2174064e-39
-0.41566837 0.34500605 1.1977392 9.3096062e-39
-0.40714669 0.3495459 1.1990845 9.4939933e-39
-0.48490369 0.35549784 1.1947048 6.083478e-39
-0.47568697 0.35518557 1.1970696 8.9415412e-39
-0.4650228 0.35542205 1.1982992 9.1255779e-39
-0.45429334 0.35473546 1.1965855 9.0330249e-39
-0.44661343 0.35531372 1.1975753 9.0330221e-39
-0.421974 0.3568539 1.1992649 9.2174092e-39
-0.41502476 0.35681581 1.1991352 9.3096076e-39
-0.4084686 0.35810474 1.1994023 9.4021634e-39
-0.37158477 0.35775122 1.1995727 9.6773111e-39
-0.36609146 0.35789263 1.1995045 9.6773083e-39
-0.35902858 0.35704416 1.1999131 1.0137206e-38
-0.4908686 0.36446813 1.1963379 1.475528e-39
-0.48486304 0.36492813 1.1954504 7.0054259e-39
-0.47525945 0.36529282 1.195053 8.6645955e-39
-0.46497145 0.3655287 1.195827 9.2177707e-39
-0.45437714 0.3655287 1.1958271 9.0333823e-39
-0.44636816 0.36636144 1.196707 9.0333781e-39
-0.43494096 0.36913711 1.1996391 9.2170519e-39
-0.42443657 0.36756697 1.1992854 9.493273e-39
-0.4141309 0.36577255 1.198881 9.4014389e-39
-0.40506288 0.36756697 1.1992854 9.4932758e-39
-0.3947562 0.36913711 1.1996391 9.58547e-39
-0.38530096 0.36913711 1.1996391 9.6776671e-39
-0.37584573 0.36913711 1.1996391 9.6776671e-39
-0.36599654 0.36913714 1.1996391 9.6773139e-39
-0.3427524 0.36913711 1.1996391 9.8606164e-39
-0.33605498 0.36913714 1.1996391 9.4936331e-39
-0.32856953 0.36913711 1.1996391 9.5858218e-39
-0.48380572 0.37401327 1.1917411 8.2032517e-39
-0.47525918 0.37445727 1.1919543 8.756431e-39
-0.46497148 0.37401327 1.1917412 9.2177707e-39
-0.4543021 0.37483785 1.192137 9.0333739e-39
-0.44446859 0.37498116 1.195604 9.0333795e-39
-0.43494096 0.37552625 1.1965624 9.1248576e-39
-0.42589906 0.37566152 1.1969905 9.3088874e-39
-0.4138653 0.37512076 1.1987307 9.4932758e-39
-0.40464568 0.37451226 1.1985307 9.4010802e-39
-0.39539048 0.37549597 1.1987966 9.4014375e-39
-0.38482437 0.37561336 1.1990572 9.5854742e-39
-0.37526572 0.37507004 1.1990018 9.5858302e-39
-0.36519998 0.37887323 1.1993901 9.769141e-39
-0.35215715 0.37887323 1.1993901 1.0045008e-38
-0.34438843 0.37670001 1.1991681 9.6776671e-39
-0.33558926 0.37633777 1.1991313 9.7695012e-39
-0.32607144 0.37887323 1.1993902 9.7698613e-39
-0.49226338 0.38777217 1.190665 6.4572674e-40
-0.48410821 0.38660088 1.1912291 7.7422721e-39
-0.4751257 0.38511005 1.191947 8.7567856e-39
-0.46645844 0.3875947 1.1907505 9.3096062e-39
-0.45377269 0.385607 1.1917077 9.2170547e-39
-0.44539097 0.38560021 1.1945834 9.125215e-39
-0.43496484 0.3861306 1.1944933 9.3088846e-39
-0.42459178 0.38494009 1.1956851 9.4010816e-39
-0.41499999 0.3842147 1.1968176 9.4929171e-39
-0.40532705 0.3850581 1.1964116 9.4014403e-39
-0.39484283 0.38528293 1.1963032 9.4932744e-39
-0.38431966 0.38434821 1.1967535 9.4014389e-39
-0.37729427 0.3827191 1.197538 9.4014361e-39
-0.36519998 0.38207811 1.1978467 9.7687809e-39
-0.35215718 0.38314641 1.1973323 9.9531708e-39
-0.34535223 0.38500425 1.1964374 9.9531708e-39
-0.33437145 0.38421476 1.1968179 9.7694998e-39
-0.32607144 0.3842147 1.1968179 9.9528162e-39
-0.48495716 0.39596593 1.1911587 7.8337517e-39
-0.46432573 0.39639324 1.1909531 9.2174064e-39
-0.45498437 0.39657417 1.1924514 9.0333795e-39
-0.44620299 0.39440882 1.1967645 9.3096062e-39
-0.43542674 0.39568752 1.1954548 9.3088916e-39
-0.42453995 0.39564684 1.1963794 9.3092433e-39
-0.41428566 0.39541095 1.1969756 9.4014375e-39
-0.40405029 0.39578992 1.194365 9.3092447e-39
-0.39606228 0.396236 1.1965783 9.4932772e-39
-0.38452381 0.39415956 1.1975782 9.5858274e-39
-0.37653059 0.39372548 1.1977872 9.4936359e-39
-0.36428571 0.39112064 1.1990415 9.676944e-39
-0.35391155 0.39357227 1.197861 9.5854686e-39
-0.34471399 0.39416292 1.1948017 9.9524519e-39
-0.33809525 0.39326581 1.1980085 1.0045001e-38
-0.32499999 0.39219326 1.198525 9.9524575e-39
-0.4845238 0.4072094 1.1912936 8.1114288e-39
-0.47261906 0.40828198 1.1907771 8.9408181e-39
-0.46309525 0.4072094 1.1912936 9.0330151e-39
-0.45357355 0.40530318 1.1934448 8.9411796e-39
-0.44495454 0.40345392 1.1986519 9.2170505e-39
-0.43519056 0.40679282 1.196674 9.2174092e-39
-0.42515856 0.40583113 1.1952219 9.3088874e-39
-0.41490513 0.40519452 1.1952523 9.3092419e-39
-0.40458754 0.40592048 1.1954194 9.4014333e-39
-0.39442855 0.40560764 1.1976147 9.6769454e-39
-0.38520819 0.40499228 1.1979109 9.5854728e-39
-0.37563077 0.40325817 1.1987461 9.7695012e-39
-0.36574289 0.40237704 1.1991704 9.5851085e-39
-0.35498577 0.40225735 1.199228 9.6776671e-39
-0.34351143 0.40173092 1.1994815 9.584391e-39
-0.33418861 0.40302315 1.1988592 9.6769412e-39
-0.32543075 0.40325812 1.1987463 9.8606164e-39
-0.49322352 0.41704223 1.1943281 3.3176049e-39
-0.48765719 0.41637641 1.1924288 8.2032418e-39
-0.46255717 0.41853011 1.1913915 9.0326536e-39
-0.45347428 0.41660571 1.194538 9.1248506e-39
-0.4454889 0.41549778 1.1964456 9.1248534e-39
-0.43412611 0.41561878 1.1944292 9.2170491e-39
-0.4240126 0.41607368 1.1962306 9.3092433e-39
-0.41513696 0.41602299 1.1970385 9.2170449e-39
-0.40503833 0.41583091 1.1971309 9.4007116e-39
-0.3954193 0.41602308 1.1970384 9.4925527e-39
-0.38489431 0.41554281 1.1972697 9.4932716e-39
-0.37410286 0.41554281 1.1972698 9.5847512e-39
-0.36451051 0.41554275 1.1972697 9.5851071e-39
-0.354855 0.41531536 1.1973791 9.7684194e-39
-0.34634033 0.41421324 1.19791 9.8598975e-39
-0.33556205 0.41214761 1.1989049 9.952812e-39
-0.32459936 0.41322786 1.1983845 9.7687781e-39
-0.31355098 0.41473258 1.1976597 1.0044649e-38
-0.30355892 0.41428244 1.1978767 9.8606178e-39
-0.29256761 0.41230196 1.1988305 1.0136842e-38
-0.49220908 0.42526555 1.1925874 4.9753004e-39
-0.48581585 0.42224836 1.1904888 8.3869156e-39
-0.4623262 0.42263952 1.1905224 9.0322949e-39
-0.45359498 0.42395258 1.1915549 9.2156085e-39
-0.44484663 0.42526555 1.1925876 9.2163288e-39
-0.43405521 0.42526555 1.1925875 9.3085202e-39
-0.42446291 0.42526555 1.1925876 9.3088818e-39
-0.41422549 0.42508301 1.194136 9.2166889e-39
-0.40531996 0.4255203 1.19751 9.4007144e-39
-0.39564446 0.42429674 1.1940631 9.5843882e-39
-0.38509622 0.42441106 1.1937391 9.6765825e-39
-0.37410289 0.42418528 1.1931077 9.5843896e-39
-0.36423379 0.42451769 1.1929476 9.5843882e-39
-0.35504895 0.42527533 1.1961739 9.6762265e-39
-0.34428954 0.42478532 1.1983683 9.768418e-39
-0.33465904 0.42478532 1.1983682 1.0045008e-38
-0.3250286 0.42478529 1.1983683 1.0044648e-38
-0.31538835 0.42477006 1.1967901 1.0136477e-38
-0.30576763 0.42478529 1.1983684 9.9524505e-39
-0.29493335 0.42261606 1.1994129 1.0228679e-38
-0.28409904 0.42261603 1.1994131 1.0228321e-38
-0.27527115 0.42225453 1.1995871 1.0227957e-38
-0.26844952 0.42153147 1.1999353 1.0412355e-38
-0.4526324 0.43780038 1.1921008 9.2170463e-39
-0.4459255 0.43795538 1.1920261 9.2166889e-39
-0.43560711 0.43764547 1.1921754 9.2166889e-39
-0.42574733 0.43888497 1.1915784 9.4921982e-39
-0.41307864 0.43547621 1.19322 9.5836764e-39
-0.40447998 0.43454656 1.1936678 9.492194e-39
-0.39484954 0.43454662 1.1936678 9.4003543e-39
-0.38521907 0.43454656 1.1936678 9.6762237e-39
-0.37558863 0.43454653 1.1936677 9.7680606e-39
-0.36614808 0.43477491 1.1935577 9.5840295e-39
-0.35512382 0.43454656 1.1936677 9.8598947e-39
-0.34428954 0.43346193 1.1941901 9.8598975e-39
-0.33465904 0.43346196 1.19419 9.8602549e-39
-0.32500955 0.43457633 1.1940974 9.9524491e-39
-0.31504378 0.43380743 1.1951336 1.0043926e-38
-0.30587941 0.43354371 1.1965184 1.0135763e-38
-0.2941415 0.43250221 1.1990918 1.0136123e-38
-0.28862095 0.43156964 1.1995409 1.0318711e-38
-0.45214099 0.44501609 1.1908455 9.3078028e-39
-0.44549611 0.44445014 1.1908011 9.3081643e-39
-0.43577906 0.44105417 1.1905338 9.3085216e-39
-0.42494479 0.44105417 1.1905338 9.5840295e-39
-0.41355813 0.44447207 1.1911075 9.6755077e-39
-0.40557715 0.44567007 1.1921164 9.5836736e-39
-0.39486754 0.44351751 1.1912502 9.4925499e-39
-0.38355491 0.44503343 1.191691 9.952096e-39
-0.37501806 0.44553563 1.1914492 9.8598961e-39
-0.3653295 0.44501609 1.1908455 9.9520932e-39
-0.35365781 0.44397938 1.1920848 9.952089e-39
-0.34515527 0.44481352 1.1934273 9.9520862e-39
-0.33574036 0.44367272 1.1948222 9.9520862e-39
-0.3245202 0.4452194 1.1929674 1.0136119e-38
-0.31417161 0.44439691 1.1933635 1.0043924e-38
-0.30592412 0.44565099 1.1983092 1.0043924e-38
-0.29582095 0.44419459 1.1990105 1.0135403e-38
-0.28339404 0.4452869 1.1984845 1.0319434e-38
-0.27388787 0.44618067 1.1980543 1.0503468e-38
-0.26429906 0.44637927 1.1979585 1.0411268e-38
-0.25702477 0.4452869 1.1984844 1.0411625e-38
-0.50313807 0.45839471 1.1921721 8.3121522e-40
-0.45164952 0.45115411 1.1901095 9.3992879e-39
-0.44561142 0.45115411 1.1901095 9.3996382e-39
-0.41300571 0.45115411 1.1901095 9.6762279e-39
-0.40575999 0.45115411 1.1901095 9.5836694e-39
-0.39489144 0.45115411 1.1901095 9.7677047e-39
-0.38404775 0.45558876 1.1925144 9.9520876e-39
-0.37583804 0.45511779 1.1937504 9.9517316e-39
-0.36583638 0.45595413 1.1918677 1.0043929e-38
-0.35453099 0.45551723 1.1920782 1.0135404e-38
-0.34448466 0.45465401 1.1939738 1.0227597e-38
-0.33538729 0.45496067 1.1960458 1.0135401e-38
-0.32439077 0.45548782 1.1927793 1.013576e-38
-0.31474844 0.45602348 1.1942391 1.0319425e-38
-0.30531606 0.45595753 1.1980417 1.0503101e-38
-0.2942166 0.45670602 1.198535 1.0411266e-38
-0.28481147 0.45690545 1.1984391 1.0411271e-38
-0.27442175 0.45577174 1.1973995 1.0595658e-38
-0.26537207 0.45567411 1.1979221 1.041162e-38
-0.25779089 0.45602813 1.1988615 1.0503824e-38
-0.24586287 0.45580879 1.1989671 1.0504178e-38
-0.51808763 0.46860108 1.1983564 8.3157395e-40
-0.50754857 0.46677488 1.1936861 9.2376397e-40
-0.38428909 0.46489316 1.1937386 1.004285e-38
-0.3751235 0.46480101 1.1946368 1.0135403e-38
-0.36534593 0.46531558 1.193279 1.0135403e-38
-0.35444841 0.46485937 1.1932211 1.0135403e-38
-0.34566855 0.46458167 1.1947423 1.0227594e-38
-0.33593151 0.46458167 1.1947423 1.0227234e-38
-0.3255541 0.46537712 1.1950121 1.0411268e-38
-0.31487286 0.46674368 1.1979703 1.0411625e-38
-0.30547622 0.46750015 1.1988866 1.0411268e-38
-0.29522714 0.4662585 1.1983749 1.0503102e-38
-0.2852293 0.46526703 1.1964934 1.0503819e-38
-0.27478856 0.46590686 1.1976093 1.0687496e-38
-0.26428288 0.46594805 1.1982466 1.0503461e-38
-0.25454816 0.46702263 1.1986898 1.0595653e-38
-0.24682479 0.46750018 1.1988866 1.0778973e-38
-0.41261148 0.47225794 1.1910456 9.7673446e-39
-0.40774289 0.47225791 1.1910456 9.8598905e-39
-0.39070287 0.47116131 1.1915737 1.0043929e-38
-0.38461715 0.47116128 1.1915737 9.8598919e-39
-0.37488005 0.47116128 1.1915737 1.0043564e-38
-0.36514288 0.47116128 1.1915737 9.952089e-39
-0.35470635 0.47263083 1.191976 1.0227594e-38
-0.34509453 0.47439572 1.1933459 1.0227957e-38
-0.33552921 0.4745152 1.193427 1.0411266e-38
-0.32527855 0.47434732 1.1937391 1.0503103e-38
-0.31525147 0.47520643 1.1951753 1.0503456e-38
-0.30547625 0.47520643 1.1951753 1.0503817e-38
-0.29594538 0.47498623 1.1952813 1.0687492e-38
-0.28599709 0.47475311 1.196781 1.0503822e-38
-0.2737067 0.47190377 1.1967658 1.0871529e-38
-0.26378697 0.47444302 1.1965519 1.0595288e-38
-0.2538071 0.4747346 1.1954025 1.0779323e-38
-0.24652277 0.47553504 1.1956336 1.0871168e-38
-0.23797335 0.47816354 1.1993008 1.0963361e-38
-0.41373703 0.48423383 1.190828 9.8598863e-39
-0.40933812 0.48511454 1.1904038 1.0043563e-38
-0.38367811 0.48511454 1.1904038 1.0043917e-38
-0.37023717 0.48511454 1.1904038 1.0042837e-38
-0.36360398 0.48417094 1.1908584 1.031943e-38
-0.35435244 0.48291275 1.1914644 1.0227595e-38
-0.34477481 0.48339754 1.1916577 1.0411631e-38
-0.3350805 0.48394814 1.1921549 1.031943e-38
-0.32490712 0.48510087 1.1928768 1.0594943e-38
-0.31507817 0.48424107 1.1924101 1.0503459e-38
-0.30547622 0.48291272 1.1914643 1.0503463e-38
-0.29436663 0.48360816 1.1939042 1.0595298e-38
-0.2853387 0.48510227 1.1964818 1.0595292e-38
-0.26274976 0.48437315 1.1989743 1.0595289e-38
-0.25561148 0.48437923 1.1969419 1.0686773e-38
-0.24736926 0.48500976 1.1966381 1.0778971e-38
-0.35205337 0.49474138 1.1913173 1.0318711e-38
-0.34592006 0.49363619 1.1918497 1.0411264e-38
-0.33610675 0.49363619 1.1918497 1.0411624e-38
-0.32506666 0.49363619 1.1918496 1.0410906e-38
-0.31423593 0.49459872 1.1923375 1.0410904e-38
-0.30382097 0.49575177 1.191465 1.0502391e-38
-0.29439825 0.49598244 1.1920859 1.0503099e-38
-0.28507879 0.49577808 1.195127 1.068713e-38
-0.27422285 0.49931133 1.1991059 1.0687126e-38
-0.26359111 0.49682206 1.1984547 1.0594574e-38
-0.2557593 0.49396718 1.1964998 1.077825e-38
-0.24825133 0.49464396 1.1964203 1.0686773e-38
-0.35191619 0.50625539 1.190212 1.0410187e-38
-0.34494352 0.50477725 1.1909239 1.0318359e-38
-0.33653525 0.50570107 1.190479 1.0318359e-38
-0.3221387 0.50448161 1.1910663 1.0410911e-38
-0.31500196 0.50403821 1.1912799 1.0410541e-38
-0.30515811 0.50448161 1.1910664 1.0410904e-38
-0.29492712 0.50435942 1.1915523 1.0503098e-38
-0.28442812 0.50504988 1.1956487 1.0594932e-38
-0.27439934 0.50455797 1.1965795 1.0594933e-38
-0.26434091 0.50487584 1.1964263 1.0410542e-38
-0.25445908 0.5048759 1.1964263 1.0686774e-38
-0.24828288 0.5048759 1.1964262 1.0687132e-38
-0.3471019 0.5148921 1.1916026 1.0226871e-38
-0.32338533 0.51533729 1.1913882 1.068642e-38
-0.31513107 0.51436841 1.1918548 1.0502383e-38
-0.30386859 0.5148921 1.1916027 1.0502739e-38
-0.29370165 0.51454961 1.1917676 1.0686773e-38
-0.28410479 0.51377916 1.1921386 1.068677e-38
-0.27464491 0.51438493 1.1944582 1.0778967e-38
-0.26459271 0.51427591 1.1932867 1.0686054e-38
-0.2553778 0.51563686 1.1964465 1.0686413e-38
-0.24676003 0.51315302 1.1979896 1.0962641e-38
-0.23559999 0.5101738 1.1994243 1.0778251e-38
-0.22319999 0.5101738 1.1994243 1.0962277e-38
-0.21501599 0.51062071 1.1992091 1.0870441e-38
-0.20770001 0.51073241 1.1991553 1.0870801e-38
-0.32116002 0.52804899 1.190816 1.0502736e-38
-0.31421599 0.52760214 1.1910312 1.0410192e-38
-0.30470181 0.52601767 1.1917942 1.050238e-38
-0.29512 0.52693182 1.1913539 1.0594219e-38
-0.28486186 0.52601773 1.1917943 1.0594573e-38
-0.27528003 0.52469736 1.19243 1.0595292e-38
-0.26527733 0.52447391 1.1925377 1.0502379e-38
-0.25542116 0.5244596 1.1929145 1.0686051e-38
-0.24455853 0.52424645 1.1975801 1.0778245e-38
-0.23401524 0.52446938 1.1980894 1.0870081e-38
-0.22441283 0.52398872 1.198321 1.0870443e-38
-0.21409905 0.52446938 1.1980892 1.0778962e-38
-0.2043899 0.52424508 1.1981975 1.0962633e-38
-0.19471635 0.52206624 1.1992469 1.1054831e-38
-0.18795906 0.52110493 1.1997097 1.1423626e-38
-0.16306382 0.52110493 1.1997097 1.1054476e-38
-0.15435049 0.52110493 1.1997097 1.1055181e-38
-0.14812668 0.52110493 1.1997097 1.1239219e-38
-0.13069999 0.52110493 1.1997097 1.1422907e-38
-0.12447619 0.52110493 1.1997097 1.1147024e-38
-0.11825238 0.52110493 1.1997097 1.1146671e-38
-0.29478231 0.53741753 1.1918538 1.0594213e-38
-0.28380573 0.53792727 1.1916084 1.0594573e-38
-0.27334973 0.53725433 1.1919323 1.0594214e-38
-0.26410919 0.53535455 1.1928475 1.0594213e-38
-0.25381011 0.53393888 1.1942691 1.0686048e-38
-0.24443999 0.53446603 1.1960502 1.0870081e-38
-0.23462982 0.5348478 1.1969068 1.0778243e-38
-0.2253308 0.53360581 1.1992394 1.0870082e-38
-0.21457732 0.53415155 1.1989764 1.087044e-38
-0.20439653 0.53456509 1.197588 1.0870797e-38
-0.19559856 0.53487581 1.1986277 1.0962995e-38
-0.18617904 0.53323054 1.19942 1.1054121e-38
-0.15369143 0.53323054 1.19942 1.1238866e-38
-0.14119619 0.53323054 1.19942 1.087044e-38
-0.13744763 0.53323054 1.19942 1.1146298e-38
-0.28114286 0.54786569 1.192372 1.0594932e-38
-0.26436356 0.54690075 1.1928366 1.0686417e-38
-0.25526536 0.54526967 1.1957034 1.0686055e-38
-0.24549794 0.54748791 1.1981035 1.068605e-38
-0.23537676 0.54637688 1.197529 1.0777888e-38
-0.22890714 0.54712832 1.1982765 1.077789e-38
-0.21197429 0.54769337 1.1980045 1.1147028e-38
-0.20570287 0.54769331 1.1980046 1.0871154e-38
-0.19660929 0.54684579 1.1984127 1.1054474e-38
-0.16305715 0.54543322 1.199093 1.1238869e-38
-0.10485829 0.54724133 1.1982222 1.6496179e-38
-0.099088572 0.54995352 1.1969161 1.649579e-38
-0.28489143 0.55124301 1.1907457 1.0778971e-38
-0.27459356 0.55210429 1.1909475 1.068677e-38
-0.26511931 0.55440831 1.1918112 1.068605e-38
-0.25522804 0.55572182 1.1944466 1.0686053e-38
-0.24425523 0.55771327 1.1987288 1.0778247e-38
-0.23450121 0.55535382 1.1966277 1.077789e-38
-0.22471315 0.55710214 1.1984063 1.0777888e-38
-0.21380879 0.5571022 1.1984065 1.0870801e-38
-0.20478156 0.55621338 1.1979376 1.0870441e-38
-0.19515239 0.55771327 1.1987288 1.0962275e-38
-0.1829816 0.55733514 1.198911 1.1146664e-38
-0.17500763 0.55771327 1.1987288 1.1146668e-38
-0.16619429 0.55771327 1.1987288 1.114595e-38
-0.15612189 0.55771327 1.1987287 1.1146673e-38
-0.14658912 0.55755126 1.1988068 1.1238506e-38
-0.1250654 0.55733514 1.198911 1.1054102e-38
-0.11583238 0.55771327 1.1987287 1.0408383e-38
-0.10575999 0.55771327 1.1987287 1.6403624e-38
-0.098205715 0.55771327 1.1987288 1.6495786e-38
-0.29475713 0.56351441 1.1903856 1.0869724e-38
-0.27217999 0.56238437 1.1909297 1.0777894e-38
-0.26590857 0.56238437 1.1909298 1.0777888e-38
-0.25409973 0.56309605 1.1924369 1.0686409e-38
-0.24425524 0.56451941 1.1954511 1.0778247e-38
-0.23418288 0.56451941 1.1954511 1.077825e-38
-0.22411048 0.56451941 1.1954511 1.0778241e-38
-0.2140381 0.56451946 1.195451 1.0870084e-38
-0.20425627 0.56373411 1.1958293 1.0962279e-38
-0.19767047 0.56111634 1.1970899 1.1054115e-38
-0.18130285 0.56451941 1.1954511 1.1054114e-38
-0.17525944 0.56383884 1.1957788 1.114595e-38
-0.16594251 0.56429261 1.1955603 1.1238143e-38
-0.15612191 0.56451941 1.195451 1.132998e-38
-0.14856763 0.56338501 1.1959975 1.1330698e-38
-0.12338667 0.56111634 1.1970899 1.1146295e-38
-0.1154127 0.56111634 1.1970899 1.0776442e-38
-0.10387142 0.56168354 1.1968168 1.7511049e-38
-0.098205715 0.56225073 1.1965437 1.6219567e-38
-0.25055048 0.57245994 1.191627 1.077789e-38
-0.24508454 0.57555008 1.1951337 1.0685693e-38
-0.23471646 0.57490051 1.1937817 1.0961923e-38
-0.2244806 0.57301056 1.1918745 1.0870078e-38
-0.21452382 0.57490122 1.1937813 1.0869725e-38
-0.20469175 0.57529819 1.1969199 1.0870443e-38
-0.19477335 0.57505828 1.1970354 1.1054828e-38
-0.18484488 0.57527709 1.1961901 1.1054115e-38
-0.17433746 0.57529801 1.19692 1.1238145e-38
-0.164672 0.57596982 1.1965965 1.1330336e-38
-0.15382668 0.57562798 1.1967611 1.1238861e-38
-0.14418285 0.57505816 1.1970356 1.1238861e-38
-0.13413133 0.57481831 1.1971509 1.1238506e-38
-0.12394667 0.5750581 1.1970354 1.1145949e-38
-0.11382858 0.57505822 1.1970354 1.0593484e-38
-0.10560762 0.5710699 1.1989563 1.7693994e-38
-0.09991619 0.57050014 1.1992306 1.6587651e-38
-0.25168762 0.5853138 1.1920966 1.0686414e-38
-0.24536383 0.58531368 1.1920965 1.0686054e-38
-0.23524573 0.58531368 1.1920966 1.0870084e-38
-0.22548898 0.58580208 1.1918615 1.0870082e-38
-0.21500954 0.58531374 1.1920967 1.0961921e-38
-0.20521167 0.5850935 1.194515 1.0962277e-38
-0.19520229 0.58546013 1.1952634 1.1146311e-38
-0.18452564 0.58503377 1.1935121 1.1054475e-38
-0.17489854 0.5848254 1.1923318 1.1146309e-38
-0.16445501 0.58500665 1.1952327 1.1330342e-38
-0.15517488 0.58602178 1.1973053 1.151437e-38
-0.14472574 0.58637369 1.1971359 1.1514011e-38
-0.13442847 0.5848487 1.1978703 1.1330342e-38
-0.12441333 0.58522993 1.1976867 1.1146302e-38
-0.11425716 0.58522987 1.1976866 1.077751e-38
-0.10664 0.58408606 1.1982374 1.8431562e-38
-0.25263524 0.5978117 1.1916275 1.0870805e-38
-0.24247906 0.59666789 1.1921782 1.0962991e-38
-0.23689316 0.59735417 1.1918478 1.0962633e-38
-0.2268216 0.59704918 1.1919947 1.1054114e-38
-0.21454956 0.59650451 1.1922569 1.1054474e-38
-0.20531714 0.59470308 1.1944304 1.1054475e-38
-0.19457173 0.59417999 1.1943015 1.1146662e-38
-0.18535049 0.59438026 1.19328 1.1238505e-38
-0.17438643 0.59406835 1.1934302 1.13307e-38
-0.16503809 0.59438026 1.1932801 1.1422893e-38
-0.15488191 0.59438032 1.19328 1.1423252e-38
-0.1450412 0.59453744 1.1964417 1.142289e-38
-0.1350743 0.59431362 1.1988617 1.1423248e-38
-0.12488 0.59431356 1.1988617 1.1054112e-38
-0.11523184 0.59414959 1.1989408 1.0500924e-38
-0.10608428 0.59574866 1.1981705 1.8339363e-38
-0.25136572 0.60009927 1.1905258 1.0870452e-38
-0.24461073 0.60123605 1.1913657 1.096227e-38
-0.23430288 0.60276312 1.191093 1.1054824e-38
-0.22495468 0.6051237 1.1914361 1.0962635e-38
-0.21465969 0.60542685 1.19166 1.1054468e-38
-0.20383023 0.60465342 1.1930059 1.1146668e-38
-0.19505042 0.60500669 1.1928583 1.1146668e-38
-0.18579775 0.60541177 1.1938254 1.1239222e-38
-0.17575958 0.60410655 1.1958531 1.1330695e-38
-0.165206 0.60498089 1.1929318 1.1422892e-38
-0.15566096 0.60531539 1.1919779 1.1698758e-38
-0.14533526 0.60378182 1.1949958 1.1790954e-38
-0.13557905 0.60690594 1.1983471 1.1699121e-38
-0.1256955 0.60669643 1.1984481 1.1606566e-38
-0.11511429 0.60690594 1.1983472 1.0408736e-38
-0.10435413 0.60476142 1.1947064 1.8063132e-38
-0.098119996 0.6080907 1.192227 1.5851162e-38
-0.24256429 0.61498237 1.1916829 1.1238868e-38
-0.23392209 0.61689657 1.1926111 1.1054475e-38
-0.22431356 0.61510926 1.1919302 1.1054832e-38
-0.21508515 0.61570954 1.1930987 1.133033e-38
-0.20490466 0.61536103 1.1930422 1.1146661e-38
-0.19282396 0.61448711 1.192318 1.1330342e-38
-0.18381743 0.61546648 1.1942247 1.1422534e-38
-0.17395049 0.61497253 1.1944623 1.1422889e-38
-0.16519247 0.61543554 1.1936846 1.1606563e-38
-0.15585017 0.6153633 1.1924244 1.1882428e-38
-0.14581141 0.61497265 1.1944623 1.1974982e-38
-0.13566433 0.6147421 1.1945733 1.1882788e-38
-0.12722872 0.61664623 1.1965107 1.1790598e-38
-0.11485849 0.61520314 1.1943514 1.0777157e-38
-0.10514814 0.61559469 1.193736 1.8246082e-38
-0.098119996 0.61153495 1.1905683 1.5481297e-38
-0.24301904 0.62188691 1.1911327 1.1055188e-38
-0.23534475 0.62188691 1.1911327 1.1146311e-38
-0.22511238 0.62188691 1.1911325 1.1146661e-38
-0.21488002 0.62188691 1.1911327 1.105518e-38
-0.20464763 0.62188691 1.1911325 1.114702e-38
-0.19441524 0.62188691 1.1911327 1.1329983e-38
-0.18418285 0.62188691 1.1911325 1.1513291e-38
-0.17395048 0.62188691 1.1911327 1.1513647e-38
-0.16499716 0.62188691 1.1911328 1.1422173e-38
-0.15604381 0.62188691 1.1911327 1.179023e-38
-0.14581144 0.62188691 1.1911325 1.17906e-38
-0.13550361 0.62180978 1.1919098 1.1974625e-38
-0.12557277 0.62452632 1.1956334 1.1699127e-38
-0.11470324 0.62313718 1.1918625 1.0960828e-38
-0.10488191 0.62188691 1.1911327 1.8062046e-38
-0.098486669 0.62303931 1.1905777 1.62185e-38
-0.25566763 0.63739806 1.1903223 1.0778592e-38
-0.22483334 0.63508302 1.1914372 1.0870787e-38
-0.2094162 0.63739806 1.1903223 1.0778231e-38
-0.15215252 0.63541377 1.191278 1.1514712e-38
-0.14359687 0.63472694 1.1916087 1.1882417e-38
-0.1349 0.63392556 1.1919947 1.2067171e-38
-0.12590668 0.63392556 1.1919944 1.2159734e-38
-0.11562859 0.6339255 1.1919945 1.1976059e-38
-0.10492224 0.63508302 1.1914374 1.7783652e-38
-0.098926678 0.63276792 1.1925521 1.5941557e-38
-0.1508743 0.64905512 1.1902583 8.011306e-39
-0.143567 0.64828056 1.1906314 8.196042e-39
-0.13368064 0.64621508 1.191626 9.8555493e-39
-0.12508382 0.64440781 1.1924962 1.1698749e-38
-0.11609327 0.64518774 1.1925833 1.1330685e-38
-0.10580365 0.64654791 1.1923906 1.170161e-38
-0.099660002 0.64562142 1.1974614 1.7140093e-38
0.056948572 0.64911973 1.1957767 1.8156394e-38
0.060831431 0.64911973 1.1957767 1.8156759e-38
-0.13201715 0.65145195 1.1946535 6.2610113e-39
-0.12425144 0.65145195 1.1946535 6.0740655e-39
-0.11648571 0.65261805 1.194092 1.0226829e-38
-0.10289572 0.65436721 1.1932496 1.667802e-38
-0.095845699 0.65426362 1.1944096 1.8154235e-38
-0.086136736 0.6546852 1.1959507 1.8338989e-38
-0.075234286 0.65639353 1.1956036 1.8892162e-38
-0.06478858 0.65567195 1.1942861 1.907656e-38
-0.054581907 0.6544838 1.1954135 1.8892526e-38
-0.044051431 0.65333712 1.1954105 1.8432265e-38
-0.034978859 0.65435946 1.1945853 1.8708142e-38
-0.02613592 0.65877128 1.1949344 1.7508154e-38
-0.015225197 0.65779448 1.1964426 1.7878012e-38
-0.0051847622 0.65474296 1.1952887 1.8800689e-38
0.0051847622 0.65707862 1.1941639 1.7600712e-38
0.015909353 0.65737903 1.1942209 1.7416324e-38
0.025923811 0.65707862 1.1941638 1.7416331e-38
0.035297144 0.65738291 1.1957932 1.7232293e-38
0.043782294 0.65529335 1.1941355 1.8431553e-38
0.053583432 0.65191841 1.1944289 1.8800692e-38
0.06471429 0.65145195 1.1946535 1.8340794e-38
0.075110719 0.65414369 1.1941898 1.5390534e-38
0.08554858 0.65785944 1.1937878 4.3248933e-39
0.096528567 0.65742242 1.1934433 1.6862065e-38
0.10480143 0.65675431 1.1962622 1.7325555e-38
0.11374319 0.65460581 1.1968344 1.7695052e-38
0.12347487 0.65191841 1.1944289 1.797056e-38
0.13460572 0.65145195 1.1946535 1.8247514e-38
0.14496002 0.652035 1.1943728 1.7971286e-38
0.15510952 0.65552378 1.1949124 1.5942976e-38
0.16518459 0.65820801 1.1940639 1.2899797e-38
0.17511143 0.65668637 1.1954625 1.4467828e-38
0.18557103 0.65486145 1.1939629 1.4745145e-38
0.19418 0.65530545 1.195825 1.4929196e-38
0.20528629 0.65744984 1.1937631 1.317675e-38
0.21516763 0.65707856 1.1941639 1.3453341e-38
0.22514459 0.65575886 1.1939114 1.3916121e-38
0.23474449 0.656106 1.1943153 1.2352764e-38
0.24591412 0.65649211 1.1948901 9.4050192e-39
0.25460571 0.65508634 1.1945684 9.6783733e-39
0.26547647 0.6535607 1.1944704 1.2995939e-38
0.27456814 0.65588397 1.1940562 1.4748777e-38
0.28407428 0.65873092 1.194478 1.7789427e-38
0.29768574 0.65844864 1.1912842 1.8066381e-38
0.3041572 0.65844864 1.1912842 1.8343319e-38
0.32595944 0.65867442 1.1938393 1.8158571e-38
0.33466288 0.65873092 1.194478 1.8158575e-38
0.34039715 0.65844864 1.1912842 1.7882352e-38
0.35204571 0.65844864 1.1912842 1.7882356e-38
0.3757 0.65901315 1.1976718 1.751465e-38
0.38349998 0.65901315 1.1976718 1.7698681e-38
0.39520001 0.65901315 1.1976718 1.788343e-38
0.41897714 0.65873086 1.194478 1.7329899e-38
0.42487031 0.65808463 1.1954553 1.7238063e-38
0.4303 0.65901315 1.1976718 1.7514652e-38
0.48619998 0.65901315 1.1976718 1.7422456e-38
0.49009997 0.65901315 1.1976718 1.7238788e-38
0.53560007 0.65901315 1.1976718 1.7054043e-38
0.54210001 0.65901315 1.1976718 1.7146958e-38
0.56550002 0.65901315 1.1976718 1.6777818e-38
0.57590002 0.65901315 1.1976718 1.6686343e-38
0.58110005 0.65901315 1.1976718 1.7055125e-38
0.59670001 0.65901315 1.1976718 1.6410473e-38
0.60657996 0.65854466 1.1978973 1.6594507e-38
0.61425 0.65842754 1.1979537 1.6410117e-38
0.62400001 0.65901315 1.1976718 1.659415e-38
0.6383 0.65901315 1.1976718 1.6594863e-38
0.64609998 0.65767461 1.1983165 1.5950224e-38
0.65390003 0.65767461 1.1983165 1.3094712e-38
-0.023764763 0.66097248 1.1922885 1.2895851e-38
-0.019414287 0.66078085 1.190161 1.1881695e-38
0.006471429 0.66078085 1.190161 1.1146295e-38
0.01553143 0.66078085 1.190161 1.114522e-38
0.025885716 0.66078085 1.190161 1.1052653e-38
0.034945719 0.66078085 1.190161 1.1144497e-38
0.086197957 0.66211337 1.1933248 4.3259625e-39
0.093459055 0.66350663 1.1932878 1.2713241e-38
0.20190859 0.66078085 1.190161 1.4927394e-38
0.2459143 0.66078085 1.190161 1.5389455e-38
0.25367999 0.66078085 1.190161 1.5758959e-38
0.2756829 0.66078085 1.190161 1.5390195e-38
0.28602913 0.66147929 1.1924883 1.649796e-38
0.29509526 0.66194493 1.1940401 1.6867112e-38
0.30545145 0.66078085 1.190161 1.6221382e-38
0.31520286 0.66106826 1.1933523 1.7235895e-38
0.3239243 0.66092455 1.1917566 1.686639e-38
0.33392572 0.66078085 1.190161 1.6129191e-38
0.34548861 0.66102725 1.1928965 1.6775642e-38
0.35386381 0.6617533 1.1919125 1.5854048e-38
0.3648943 0.66209042 1.1945249 1.6591613e-38
0.37487146 0.66106826 1.1933522 1.668381e-38
0.3848739 0.66152608 1.1945589 1.6775647e-38
0.39414653 0.66186076 1.1943977 1.6130631e-38
0.40646666 0.66291738 1.1957916 1.6038441e-38
0.41439801 0.66102725 1.1928965 1.6038804e-38
0.42064288 0.66078085 1.190161 1.5300877e-38
0.43517497 0.66399097 1.1952745 1.2810518e-38
0.44525 0.6654551 1.1945695 1.0968043e-38
0.45499998 0.66486937 1.1948516 1.1797442e-38
0.46419874 0.66316777 1.1944602 1.3549519e-38
0.47536671 0.66291738 1.1957916 1.5025001e-38
0.4849 0.6636982 1.1954155 1.2720117e-38
0.4930841 0.66226906 1.1946238 1.437964e-38
0.50526667 0.66408861 1.1952275 1.2628283e-38
0.51480001 0.66486955 1.1948513 1.0969482e-38
0.52520001 0.66428381 1.1951334 1.170705e-38
0.53560001 0.66252697 1.1959796 1.5395597e-38
0.5467 0.66423875 1.1951551 1.216839e-38
0.55484003 0.66557217 1.194513 9.9556987e-39
0.5629217 0.66288048 1.1944774 1.3182186e-38
0.57503337 0.66291732 1.1957916 1.3551335e-38
0.58500004 0.6636982 1.1954155 1.1892164e-38
0.59569997 0.66405863 1.1952419 1.1615577e-38
0.60579997 0.66486937 1.1948516 1.0693268e-38
0.61489999 0.66486955 1.1948514 1.0694346e-38
0.6243 0.66405869 1.1952419 1.1617021e-38
0.63440001 0.66486955 1.1948514 1.0879098e-38
0.64480001 0.66486955 1.1948514 1.08791e-38
0.65464288 0.66486949 1.1948515 1.0327734e-38
0.66151434 0.66730487 1.1992283 8.3023249e-39
0.079300001 0.67306828 1.1909032 3.49226e-39
0.084486246 0.67316997 1.1957872 2.2069484e-39
0.091333345 0.67475003 1.1956429 8.2856718e-39
0.44590002 0.67189705 1.1914673 8.3854891e-39
0.45500001 0.67189705 1.1914672 8.4769659e-39
0.46236667 0.67228746 1.1912793 8.7539059e-39
0.48749998 0.67306828 1.1909032 8.3854891e-39
0.49400002 0.67306828 1.1909032 8.3851234e-39
0.50526667 0.67228746 1.1912793 8.2936522e-39
0.51424289 0.67172968 1.1915479 7.8337573e-39
0.54859996 0.67189705 1.1914673 7.7426406e-39
0.55510008 0.67189705 1.1914673 7.926313e-39
0.56159997 0.67189699 1.1914673 7.7419218e-39
0.59735 0.67248267 1.1911852 7.6504464e-39
0.60580003 0.67189705 1.1914672 7.7433637e-39
0.6279 0.67189705 1.1914673 7.650452e-39
0.63439995 0.67189705 1.1914673 7.7430106e-39
0.64479995 0.67189693 1.1914673 8.7575269e-39
0.65547621 0.67280728 1.1924162 8.482012e-39
0.66464579 0.67482841 1.1956052 1.2929487e-39
0.086676836 0.68240279 1.1941774 1.9321804e-39
0.091333345 0.68258709 1.1918688 7.9197718e-39
0.63672388 0.68493813 1.1907365 7.7433665e-39
0.64194286 0.68493813 1.1907365 8.0195989e-39
0.65890479 0.68023592 1.193001 5.5324791e-39
0.66412389 0.68023598 1.193001 2.0294333e-39
0.49929145 0.69974482 1.1902655 7.8337545e-39
0.60412949 0.69856411 1.190834 7.46713e-39
0.61461329 0.6991545 1.1905499 7.4667712e-39
0.62640762 0.69974482 1.1902655 7.4667768e-39
0.63033909 0.69974482 1.1902655 7.5589725e-39
0.4379743 0.70939744 1.1911666 8.2925648e-39
0.4379743 0.71176744 1.1900253 8.2914928e-39
0.56555235 0.71176744 1.1900253 7.4660496e-39
0.59317243 0.71176744 1.1900253 7.2813038e-39
0.086914286 0.74651134 1.1988215 6.4320721e-40
0.079060003 0.75896704 1.1961529 8.2651947e-40
0.085664287 0.75394392 1.196907 5.5137171e-40
0.077554286 0.76217276 1.1912794 5.4352107e-39
0.085495248 0.76542997 1.1963705 4.5989495e-40
0.084748104 0.77454144 1.1947573 2.7586802e-40
0.084342293 0.82759184 1.191963 1.1971041e-39
0.079148576 0.88656765 1.1913096 0
0.08192572 0.88656765 1.1913096 9.2194229e-41
-0.39198574 0.24737389 1.2050012 1.5210468e-38
-0.38971338 0.24737389 1.2050012 1.5211193e-38
-0.46515498 0.25852263 1.2096214 1.0600697e-38
-0.45561525 0.25852263 1.2096214 1.0231187e-38
-0.44416761 0.25852263 1.2096214 1.0230468e-38
-0.43615431 0.25852263 1.2096214 9.6794649e-39
-0.39216 0.25128463 1.2075574 1.4288876e-38
-0.38874 0.25128463 1.2075574 1.3920802e-38
-0.33656001 0.25852263 1.2096214 5.0631968e-39
-0.48354861 0.2686964 1.2091618 6.5451596e-39
-0.47550857 0.2686964 1.2091618 8.5727615e-39
-0.46498626 0.26510447 1.2066984 9.2170575e-39
-0.45536813 0.2651546 1.2072347 9.2177651e-39
-0.44453856 0.26493391 1.2076439 9.4025165e-39
-0.43525085 0.26554999 1.2071717 9.3103321e-39
-0.42841718 0.2686964 1.2091618 8.941195e-39
-0.38362288 0.26869643 1.2091616 9.3099664e-39
-0.37443432 0.26869643 1.2091616 9.5862015e-39
-0.36792576 0.26904136 1.2089957 9.8627968e-39
-0.33768004 0.26766157 1.2096601 1.0879087e-38
-0.48432055 0.27526641 1.2063149 5.0693177e-39
-0.47550863 0.27490538 1.2061716 8.665313e-39
-0.46593621 0.2746774 1.2051715 9.1262954e-39
-0.45567736 0.27472302 1.2053716 9.1259352e-39
-0.44564575 0.27490538 1.2061716 9.0341011e-39
-0.43576783 0.27507421 1.2063369 9.1262968e-39
-0.42600843 0.27718055 1.2090718 9.2181323e-39
-0.41562542 0.27754757 1.2093388 9.4018005e-39
-0.40514424 0.27774537 1.2092435 9.4025193e-39
-0.39526668 0.27789363 1.2091722 9.6780314e-39
-0.38453731 0.27558371 1.2086703 9.4943576e-39
-0.37474617 0.27513546 1.2071707 9.5869162e-39
-0.36500767 0.27544156 1.2073933 9.6787545e-39
-0.35570163 0.27754757 1.2093388 9.7705844e-39
-0.34917143 0.27685541 1.2096721 9.8631373e-39
-0.33591908 0.27685541 1.2096721 9.954254e-39
-0.32497144 0.27789363 1.2091721 1.0046459e-38
-0.31690478 0.27789366 1.2091721 1.106205e-38
-0.30346036 0.2775476 1.2093388 1.1246449e-38
-0.29500952 0.27789366 1.2091721 1.1338636e-38
-0.28924763 0.27685541 1.2096721 1.1614867e-38
-0.48471531 0.28389496 1.2044128 4.6090654e-39
-0.47480366 0.28475618 1.203401 8.6649543e-39
-0.46542904 0.28454474 1.2025867 9.1262968e-39
-0.4546724 0.28486153 1.2031143 9.0337452e-39
-0.44526488 0.2837885 1.2050276 9.033741e-39
-0.43649292 0.2855629 1.2067846 9.1255779e-39
-0.42530924 0.28616902 1.2066668 9.2177749e-39
-0.41542384 0.28523365 1.2084122 9.3099678e-39
-0.4046883 0.28502148 1.2083293 9.4932786e-39
-0.39637676 0.28369504 1.2077445 9.5854784e-39
-0.38963622 0.28610417 1.2096579 9.7695096e-39
-0.37396622 0.28358188 1.2075427 9.5861931e-39
-0.36563852 0.28427121 1.2073342 9.6783929e-39
-0.35515618 0.28593528 1.2089319 9.5858372e-39
-0.34107623 0.28818756 1.2086546 9.7698627e-39
-0.33876383 0.28818756 1.2086546 9.8620583e-39
-0.3272762 0.28100842 1.2076721 9.8624227e-39
-0.29604638 0.28510004 1.2086614 1.1246089e-38
-0.49327722 0.29627553 1.2078428 4.624327e-40
-0.48526016 0.29618067 1.2085053 7.0972642e-39
-0.4750374 0.29538307 1.2047455 8.7575128e-39
-0.46446192 0.2959154 1.205858 9.1262996e-39
-0.45531625 0.29609215 1.2076228 9.0337382e-39
-0.44518694 0.29490191 1.2071102 9.1252192e-39
-0.4345777 0.29531023 1.2075095 9.1259296e-39
-0.42508498 0.29543772 1.2072077 9.2174162e-39
-0.41582748 0.2950913 1.2082897 9.2177721e-39
-0.40574932 0.29425353 1.2080458 9.4018047e-39
-0.37382668 0.29774231 1.209603 9.7702186e-39
-0.36494178 0.29559594 1.2086184 9.7702228e-39
-0.35375947 0.29585642 1.20734 1.0046457e-38
-0.34516275 0.29760948 1.2090504 9.8624227e-39
-0.3383005 0.29400662 1.2086271 9.953898e-39
-0.49269426 0.308164 1.2090237 9.2196751e-40
-0.48464799 0.30540013 1.2073951 7.5585983e-39
-0.47427088 0.30436853 1.2024946 8.5731202e-39
-0.46438849 0.30430835 1.2038121 9.0337396e-39
-0.45509338 0.30506417 1.206077 9.0333795e-39
-0.44464478 0.30506417 1.206077 9.1252178e-39
-0.43562096 0.308164 1.2090236 9.1255765e-39
-0.42481723 0.30672452 1.2086924 9.1252192e-39
-0.41497719 0.30608472 1.2085452 9.3096062e-39
-0.4051708 0.30801412 1.2090958 9.4018005e-39
-0.39601904 0.3071146 1.209529 9.4018033e-39
-0.37388858 0.3071146 1.2095292 9.7702214e-39
-0.36508375 0.30759177 1.2083126 9.5861903e-39
-0.35499296 0.30563331 1.2072827 9.8616982e-39
-0.34568036 0.30666125 1.2087609 1.0045728e-38
-0.33545142 0.308164 1.2090236 7.2816695e-39
-0.49152955 0.31550992 1.2054862 7.3759306e-40
-0.48515758 0.31588027 1.205308 7.1898032e-39
-0.47496638 0.31456769 1.2030445 8.8493511e-39
-0.46491489 0.31484291 1.2029216 9.0344613e-39
-0.45509338 0.31343204 1.2020471 8.8493511e-39
-0.44471425 0.31373087 1.2021148 8.941188e-39
-0.43562093 0.31550986 1.2054862 9.0333809e-39
-0.42513812 0.31550992 1.2054862 9.1255737e-39
-0.41460752 0.31515393 1.2076309 9.3099636e-39
-0.40462521 0.3155013 1.2082226 9.4018019e-39
-0.39592287 0.31535202 1.2080992 9.4936373e-39
-0.38487431 0.31760314 1.206254 9.4936402e-39
-0.37451944 0.31672257 1.208602 9.7698711e-39
-0.36547613 0.31453687 1.2073209 9.5861931e-39
-0.35536709 0.31456402 1.2063857 9.7702228e-39
-0.34504998 0.31702361 1.2087933 9.7702228e-39
-0.33492538 0.31633827 1.208639 6.8228578e-39
-0.32720003 0.31759471 1.2089218 4.2038954e-44
-0.49161735 0.32369873 1.2024306 3.6915106e-40
-0.4849326 0.32431069 1.2015892 6.1749492e-39
-0.47522283 0.32390523 1.2014431 8.7575058e-39
-0.46507281 0.32405517 1.2013708 9.2181281e-39
-0.45475638 0.32510459 1.2008655 9.1252164e-39
-0.44318631 0.32465863 1.2023486 9.0337396e-39
-0.43435243 0.32575345 1.2038828 9.2177707e-39
-0.42518672 0.32588586 1.2043741 9.2177693e-39
-0.4148429 0.32496458 1.2053726 9.4014445e-39
-0.40406612 0.32496458 1.2053727 9.3096076e-39
-0.39497721 0.32496461 1.2053727 9.4018047e-39
-0.3854889 0.32531559 1.2047105 9.4936387e-39
-0.37511146 0.32496458 1.2053726 9.5858344e-39
-0.36459431 0.32496455 1.2053727 9.5858288e-39
-0.35524574 0.32496455 1.2053726 9.7695082e-39
-0.34472862 0.32496455 1.2053726 9.8620541e-39
-0.33449751 0.32429981 1.2060195 1.0046101e-38
-0.32758954 0.32391179 1.2058797 6.5459248e-39
-0.30624005 0.32840317 1.2092664 1.0782573e-38
-0.28277338 0.32840317 1.2092664 7.6497191e-39
-0.27456003 0.32840315 1.2092663 6.5430129e-39
-0.26517335 0.32840315 1.2092663 5.2544222e-39
-0.49267501 0.33457586 1.2070336 3.6806365e-40
-0.48470384 0.33414242 1.2018778 7.8344705e-39
-0.47444007 0.33479118 1.2006404 8.9415398e-39
-0.46509147 0.33549309 1.2003024 9.1259352e-39
-0.45634899 0.33618936 1.201077 9.0337368e-39
-0.44224778 0.3350969 1.2017264 9.2177679e-39
-0.4347086 0.33338743 1.2013166 9.2177707e-39
-0.42536005 0.33338737 1.2013166 9.3092447e-39
-0.4148429 0.3333874 1.2013165 9.4014431e-39
-0.40432578 0.33338737 1.2013166 9.49328e-39
-0.39453664 0.33418557 1.2017248 9.4936359e-39
-0.38537726 0.33506712 1.2027926 9.4936331e-39
-0.37474528 0.33361948 1.2015747 9.7691466e-39
-0.36423793 0.3345091 1.2033225 9.5854728e-39
-0.3543458 0.33564326 1.2061213 9.7695054e-39
-0.3448765 0.33467275 1.20593 9.769504e-39
-0.3351416 0.33429235 1.2084033 9.7694998e-39
-0.32585451 0.33646664 1.2089348 9.7702172e-39
-0.31547433 0.33795393 1.2091064 1.0045732e-38
-0.30386469 0.33589002 1.2063439 1.0046094e-38
-0.29561692 0.33445439 1.2076206 1.0046095e-38
-0.28506708 0.33375213 1.2076248 1.0506345e-38
-0.27478284 0.33396223 1.2076991 1.0690378e-38
-0.26581472 0.33453247 1.2079003 1.087477e-38
-0.49162674 0.34108877 1.2031572 0
-0.47402671 0.3474316 1.2001027 9.1248576e-39
-0.46346673 0.34637448 1.2006118 9.1259338e-39
-0.45642674 0.34426022 1.20163 8.8493469e-39
-0.44078228 0.34496495 1.2012906 9.2174134e-39
-0.43511772 0.34575438 1.2017982 9.1255751e-39
-0.42479014 0.3472344 1.2010857 9.309965e-39
-0.41485718 0.34652552 1.2005391 9.2181309e-39
-0.4049733 0.3454673 1.2016406 9.401799e-39
-0.39451841 0.34492192 1.2030872 9.4936373e-39
-0.38494882 0.34484449 1.2029154 9.585833e-39
-0.37487063 0.34418342 1.2042372 9.5858302e-39
-0.36514744 0.34473583 1.2053964 9.5854714e-39
-0.35535666 0.34527078 1.2064152 9.6776657e-39
-0.34485701 0.3444078 1.2074462 9.7695054e-39
-0.33498475 0.34502023 1.2084785 9.8609821e-39
-0.32503861 0.34564337 1.208668 9.8613339e-39
-0.31495807 0.34477168 1.2081084 9.8609807e-39
-0.30488467 0.34463838 1.206392 9.953175e-39
-0.29498282 0.34489647 1.2080483 1.0045009e-38
-0.28485218 0.34545183 1.2085788 1.0045368e-38
-0.27495161 0.34487966 1.2079914 1.0229036e-38
-0.26567799 0.34490922 1.2080938 1.041308e-38
-0.25579798 0.34875268 1.2094558 1.0321588e-38
-0.24820001 0.34783992 1.2098953 1.0689651e-38
-0.46026289 0.35492301 1.2009346 8.9419069e-39
-0.45673144 0.35492301 1.2009346 9.0333851e-39
-0.44225469 0.35478768 1.2021097 9.1252178e-39
-0.43536344 0.35451806 1.2034147 9.2170505e-39
-0.42633295 0.35364223 1.2025604 9.3092433e-39
-0.4138498 0.35401398 1.2013724 9.2174092e-39
-0.40443733 0.3552478 1.2045934 9.4018005e-39
-0.39464808 0.35467169 1.2041771 9.5854756e-39
-0.38464159 0.35418406 1.2032491 9.5858316e-39
-0.37499467 0.35371682 1.2027047 9.4018005e-39
-0.36493695 0.35323933 1.2021722 9.4936345e-39
-0.35482106 0.35444978 1.2040833 9.6776671e-39
-0.34511623 0.35529399 1.2063056 9.6780286e-39
-0.33566093 0.35529396 1.2063055 9.6773069e-39
-0.32502386 0.35529396 1.2063055 9.6773125e-39
-0.31444931 0.35536617 1.2065482 9.9528148e-39
-0.30493143 0.35529399 1.2063056 9.7691368e-39
-0.29524016 0.35561785 1.206672 9.9535281e-39
-0.28492767 0.35555044 1.2078177 1.0229403e-38
-0.27478996 0.35577521 1.2073424 1.022904e-38
-0.26610351 0.35677189 1.2085537 1.0504551e-38
-0.25492859 0.3585757 1.2091649 1.0505266e-38
-0.24476531 0.35842314 1.2092384 1.0412355e-38
-0.23832856 0.35750741 1.2096792 1.0780049e-38
-0.4432143 0.3638128 1.2022032 9.1252136e-39
-0.43494093 0.36381277 1.202203 9.2170547e-39
-0.42612216 0.3643862 1.2019271 9.4014389e-39
-0.41506347 0.36565208 1.2013173 9.4929143e-39
-0.40421149 0.36381283 1.2022032 9.4932758e-39
-0.39475617 0.36381277 1.202203 9.4014417e-39
-0.38530099 0.36381283 1.2022034 9.4936345e-39
-0.37608212 0.3640258 1.2021006 9.58547e-39
