# .PCD v0.7 - Point Cloud Data file format
VERSION 0.7
FIELDS x y z rgb
SIZE 4 4 4 4
TYPE F F F U
COUNT 1 1 1 1
WIDTH 272
HEIGHT 1
VIEWPOINT 0 0 0 1 0 0 0
POINTS 272
DATA ascii
-0.48981908 0.52644384 1.1691133 3682608
-0.47279248 0.51812053 1.1689594 6444631
-0.48839578 0.55471724 1.1674056 4931387
-0.47153544 0.55388814 1.167937 6641238
-0.49225593 0.58801794 1.1647496 4011318
-0.46669507 0.58684528 1.1670393 6640981
-0.43880528 0.59298921 1.1686995 6838101
-0.4060038 0.59140182 1.1695563 7034968
-0.48924831 0.61513853 1.1602577 4996927
-0.46601695 0.61636466 1.1657213 6246224
-0.4345111 0.61509162 1.1673056 6706516
-0.40439817 0.61513948 1.1671548 6969171
-0.37673649 0.61812258 1.1682497 7166038
-0.35354057 0.61889321 1.169266 7428693
-0.46618128 0.63741773 1.1627489 3419174
-0.4342021 0.63426346 1.1685238 4010547
-0.40508398 0.63925403 1.1667873 5852229
-0.37792116 0.63612884 1.1690128 6048843
-0.3405951 0.64597392 1.1684339 8153954
-0.32062373 0.65703195 1.1664035 7231313
-0.46019429 0.27915055 1.1996875 6775146
-0.4833762 0.32810289 1.1994216 5919062
-0.46243286 0.32482401 1.1993358 6315104
-0.4455891 0.32180667 1.1991241 6314850
-0.48375455 0.34745112 1.1924282 4407101
-0.46519232 0.34512442 1.1974038 6380899
-0.43483099 0.34478539 1.1978327 6511970
-0.40887001 0.3464596 1.1988295 6643557
-0.37131879 0.35108089 1.1994551 6905958
-0.35902858 0.35704416 1.1999131 7234152
-0.48791885 0.37630647 1.1896391 2565677
-0.46533176 0.37715071 1.1913624 6380640
-0.4363316 0.37641609 1.1959248 6511970
-0.40478018 0.37579572 1.1981552 6708835
-0.37547195 0.3762348 1.1987228 6840421
-0.34285286 0.37781882 1.1984445 6971492
-0.32690415 0.37740836 1.1986157 6971748
-0.48828071 0.4052611 1.1899012 3683130
-0.46327886 0.40458786 1.1899575 6380383
-0.43630427 0.40394455 1.1955634 6577507
-0.40487936 0.40578184 1.1963792 6708832
-0.37504774 0.40402904 1.1980048 6840163
-0.34512931 0.40329874 1.1980482 6971234
-0.31842801 0.40753883 1.1982384 7036772
-0.29256761 0.41230196 1.1988305 7233892
-0.48804757 0.43312651 1.1875013 4471862
-0.46226993 0.43411329 1.1874256 6379869
-0.43504784 0.43679586 1.1904913 6642528
-0.4056384 0.43698972 1.1919713 6773600
-0.3750594 0.437163 1.1917791 6970720
-0.34598538 0.43539032 1.1943867 7036512
-0.31519258 0.43461505 1.1959907 7167585
-0.28627113 0.43340257 1.1990744 7298658
-0.26325777 0.43773255 1.1987928 7429987
-0.4935416 0.46533668 1.1837354 2959148
-0.46351331 0.46337128 1.1807952 6707548
-0.43779328 0.46460181 1.1838202 6839135
-0.40462062 0.46412247 1.1888041 6970464
-0.37486181 0.46515134 1.1909889 7167073
-0.34819368 0.46532646 1.1923808 7298401
-0.31515166 0.46576113 1.1956687 7429727
-0.2849271 0.46538427 1.1972977 7495522
-0.25542203 0.46585497 1.1976845 7561055
-0.23797335 0.47816354 1.1993008 7823716
-0.49193108 0.49368513 1.1789111 3288111
-0.46257767 0.49570483 1.177254 6641498
-0.4355174 0.49797186 1.1824085 6838619
-0.40622264 0.49607959 1.1842648 7035740
-0.37507772 0.49368876 1.1864762 7166812
-0.34492913 0.49530232 1.190097 7363679
-0.31410357 0.49671134 1.190569 7429471
-0.28781751 0.49706393 1.1938443 7495261
-0.2556017 0.49486923 1.1970232 7560543
-0.49126849 0.5233463 1.1751109 3945270
-0.46225581 0.52510947 1.177449 6641239
-0.43656912 0.52569759 1.1800152 6707031
-0.40553966 0.5281539 1.1812522 6904153
-0.37638199 0.52747458 1.1840216 7101018
-0.34543124 0.52388543 1.1866465 7297884
-0.31479686 0.52359766 1.1892616 7429213
-0.28601265 0.52556181 1.1907897 7560541
-0.25634268 0.52502882 1.1943662 7625821
-0.22454235 0.52294457 1.1986313 7691613
-0.19727708 0.52583146 1.1988493 7823200
-0.15703525 0.52514678 1.1996131 7888991
-0.13638934 0.5259552 1.1995938 7954527
-0.11825238 0.52110493 1.1997097 7954530
-0.49179697 0.54834276 1.1719993 4142139
-0.46294665 0.55424172 1.1736536 6575447
-0.43339482 0.55550086 1.1759812 6706774
-0.40585405 0.55330712 1.1786305 6903641
-0.37597612 0.55581605 1.1800807 7100504
-0.34726182 0.55654258 1.1817006 7297370
-0.3155812 0.55469024 1.1860846 7363161
-0.28381687 0.55514741 1.1888039 7560285
-0.25762001 0.55597466 1.1928344 7625821
-0.22462362 0.55603498 1.197067 7691614
-0.19605717 0.55689633 1.1975456 7822942
-0.16538641 0.55874622 1.1974385 7954273
-0.1359022 0.55984694 1.1977012 7954267
-0.10515434 0.55692315 1.1977218 10718856
-0.45997259 0.58384579 1.1716651 6640982
-0.43502137 0.58461899 1.1729794 6837845
-0.40509227 0.58519006 1.1734799 6969430
-0.37425596 0.58235508 1.1780668 7166296
-0.34557703 0.58267492 1.1792462 7297624
-0.31606275 0.58628565 1.1807171 7560026
-0.28511775 0.58756238 1.1820962 7625819
-0.25444555 0.58723038 1.1875602 7691358
-0.22506502 0.58644128 1.1913369 7757150
-0.19494322 0.5849427 1.1950498 7888735
-0.16463012 0.58506429 1.1950154 8085600
-0.13453597 0.58495015 1.1975645 8020063
-0.10879511 0.58226329 1.1983224 10455171
-0.45797077 0.60773546 1.1709396 6772055
-0.43866196 0.61375636 1.171185 6772308
-0.40244684 0.61374205 1.1710808 7034966
-0.37376532 0.61605072 1.1720015 7034712
-0.34218764 0.61598176 1.1758059 7494233
-0.31546643 0.61570519 1.1792314 7625818
-0.2864514 0.61333281 1.1804971 7691612
-0.25393316 0.61267805 1.1847106 7757404
-0.2248078 0.61458248 1.1902747 7888733
-0.19601826 0.6160484 1.1910191 7954526
-0.16417648 0.61622757 1.191487 8216926
-0.13669024 0.61670989 1.1940358 8414050
-0.10627117 0.6173315 1.1920873 10586755
-0.45575908 0.64127612 1.1706961 3748141
-0.43539032 0.64034086 1.1730757 1972760
-0.40009046 0.6393317 1.1716325 2235678
-0.37381569 0.64124137 1.1737872 3352867
-0.34288472 0.64168072 1.1737949 5193532
-0.31547517 0.64250922 1.1764327 5916997
-0.28401583 0.64300835 1.1788046 6048322
-0.25657323 0.6398443 1.1830859 7428691
-0.22505528 0.63517523 1.1868522 7494741
-0.19692986 0.63998348 1.1866043 7296842
-0.16186965 0.64226723 1.1865964 7558993
-0.13522762 0.64238667 1.1911572 7295561
-0.46415606 0.25977692 1.2115315 6906976
-0.43450794 0.25996521 1.2135289 7828338
-0.40208122 0.25794405 1.2127324 8223094
-0.37636691 0.26064041 1.2144163 7433581
-0.34266225 0.25864714 1.2179312 6710113
-0.31545982 0.26046816 1.2207406 4603708
-0.28799057 0.26574808 1.2170898 8682876
-0.25632679 0.26453629 1.2197889 10064011
-0.22559988 0.26676318 1.2209381 9208966
-0.19572811 0.26651868 1.2280924 11380131
-0.48858562 0.28569755 1.2092589 2170920
-0.46520472 0.28509545 1.2048937 6380900
-0.43287343 0.28488055 1.2085879 6512229
-0.40577829 0.28444844 1.2102305 6709352
-0.37433752 0.28509948 1.2101858 6840937
-0.34553355 0.28569806 1.2106308 6972265
-0.31605518 0.28295925 1.2117398 7564664
-0.28618655 0.28292891 1.2141986 7761787
-0.25579467 0.28264958 1.2185795 7629165
-0.22603367 0.2858156 1.2205768 7760497
-0.19501552 0.28532404 1.2256761 7957877
-0.1647228 0.28515559 1.2268617 8089463
-0.13499333 0.28556129 1.2277211 8286583
-0.10757186 0.28725517 1.2278891 9866129
-0.4891223 0.3137722 1.2060758 2433831
-0.4648644 0.31440538 1.2026752 6380898
-0.43407422 0.31360307 1.2062945 6446437
-0.40446123 0.31356558 1.2089709 6643558
-0.37471113 0.31348136 1.2088722 6840679
-0.34378299 0.31292394 1.2086957 6248800
-0.31438899 0.31738415 1.2169756 1907486
-0.2835921 0.31675869 1.2181923 1907226
-0.25579357 0.31654242 1.2190828 4011572
-0.22624187 0.31585664 1.2202575 7694445
-0.19488822 0.31470224 1.2235746 7825776
-0.16393515 0.31488332 1.2226481 7957360
-0.1352203 0.31562993 1.2267221 8089203
-0.10565569 0.31551898 1.2273542 10524315
-0.48966852 0.33660236 1.2040229 1907484
-0.46334937 0.34429824 1.2007792 6380899
-0.43410644 0.34475261 1.2018466 6577764
-0.4045544 0.34464538 1.2021966 6709093
-0.37487781 0.34423327 1.2031516 6774885
-0.34290168 0.34340099 1.207592 6905959
-0.31601429 0.34301382 1.208829 7037543
-0.28565523 0.34480149 1.2091451 7234408
-0.25548869 0.34670496 1.2111272 7365480
-0.22541131 0.34417731 1.2178549 7693930
-0.19598344 0.34422484 1.2202513 7759983
-0.16390085 0.34600723 1.2203627 7891310
-0.13723689 0.34625304 1.2233003 8022895
-0.10598536 0.34772611 1.2222663 9668755
-0.43153864 0.36675981 1.2018939 6577507
-0.40491453 0.37007186 1.2014087 6708836
-0.37481937 0.37526405 1.2015392 6774628
-0.34656513 0.37353674 1.2019715 6905956
-0.31461495 0.37423146 1.2032928 7037028
-0.28506029 0.37449759 1.2050023 7233893
-0.25393218 0.37522885 1.2096732 7365223
-0.22426891 0.37337849 1.2181087 7562090
-0.19405407 0.37286299 1.2200195 7759467
-0.16472429 0.37411541 1.2200633 7825516
-0.13632554 0.37494096 1.2208263 7891054
-0.10753655 0.37232515 1.220874 9537427
-0.4506048 0.39914641 1.2007263 6643296
-0.44557512 0.40367159 1.2007668 6643045
-0.39203814 0.39806956 1.2012448 6774885
-0.3741703 0.403137 1.2010243 6840164
-0.34349051 0.40648293 1.2013553 6971234
-0.31515449 0.40641224 1.2025037 7102564
-0.28490874 0.40451923 1.2035419 7233891
-0.25340372 0.40510321 1.2058241 7364966
-0.22448419 0.4064782 1.2105143 7496295
-0.19565058 0.40738297 1.2113379 7627879
-0.1647608 0.40491876 1.2149062 7759209
-0.13512778 0.40511116 1.2163898 7824747
-0.30257633 0.43657556 1.2011999 7167583
-0.28497517 0.43608949 1.2017539 7298657
-0.252451 0.43523282 1.2051612 7364450
-0.22453301 0.43444401 1.2099769 7430244
-0.19479874 0.43441284 1.2098308 7561572
-0.16709515 0.43328562 1.2117826 7693156
-0.13472641 0.43210542 1.2167363 7824487
-0.3068715 0.4590584 1.2011019 7364192
-0.28554592 0.46163371 1.2011566 7495521
-0.25289461 0.46251962 1.2019041 7561057
-0.22351837 0.46394733 1.2072242 7626595
-0.19488625 0.46308956 1.2072369 7757923
-0.1646467 0.46485466 1.210094 7823714
-0.13563001 0.46522427 1.2101617 7889507
-0.10672697 0.46954784 1.2116078 9732479
-0.27705458 0.49316239 1.2022661 7692129
-0.25272268 0.49242505 1.202237 7692128
-0.2253906 0.49454635 1.2045461 7692129
-0.19544199 0.49506208 1.2043091 7823455
-0.16547501 0.49234629 1.2074317 7954786
-0.1344278 0.49299228 1.2081715 7955040
-0.10674376 0.49262878 1.2065177 8876657
-0.24347542 0.51706755 1.201654 7757407
-0.22318362 0.52612907 1.2019149 7757407
-0.19234143 0.52580285 1.2023032 7888992
-0.16511817 0.52581376 1.2031072 7888736
-0.1349353 0.52632588 1.2028273 7954528
-0.10608406 0.52499682 1.2047107 8877683
-0.24730159 0.55021971 1.2004876 7625819
-0.22411557 0.54790151 1.2013223 7757149
-0.19305627 0.55301458 1.2012845 7823198
-0.16579299 0.54960489 1.2022537 7954273
-0.13513644 0.55515641 1.202387 7954272
-0.10766328 0.55632955 1.2011602 10191999
-0.13022001 0.59543049 1.2010987 8085598
-0.10738464 0.58636075 1.2022485 11508119
-0.12839352 0.60650057 1.2007622 8086112
-0.11729857 0.60827196 1.201019 7559251
-0.36753333 0.25760707 1.2323841 6907742
-0.35991144 0.25674272 1.2337868 8815749
-0.31647369 0.25553229 1.2328899 8420988
-0.24792144 0.26346934 1.2327673 12104106
-0.21807002 0.26673388 1.2385023 12367273
-0.1933846 0.26619959 1.2361962 12301486
-0.16290116 0.26715422 1.2390952 12695988
-0.1333501 0.26562196 1.2411958 12827569
-0.11005316 0.2675615 1.236485 13221818
-0.2122905 0.27091849 1.2314 7169386
-0.19508947 0.27159941 1.2313033 7498099
-0.16666372 0.27116781 1.2371624 9998484
-0.13413988 0.282976 1.232762 8155510
-0.10423241 0.27669576 1.2351543 9932946
-0.30238095 0.32676572 1.2300333 0
-0.26411429 0.32034171 1.2303522 591367
-0.12867971 0.30825105 1.2311801 8089202
-0.10433556 0.31198221 1.231509 9867160
-0.099362865 0.33830813 1.2322443 12237001
