# .PCD v0.7 - Point Cloud Data file format
VERSION 0.7
FIELDS x y z rgb
SIZE 4 4 4 4
TYPE F F F U
COUNT 1 1 1 1
WIDTH 1098
HEIGHT 1
VIEWPOINT 0 0 0 1 0 0 0
POINTS 1098
DATA ascii
-0.46493933 0.74547124 1.146139 4284960007
-0.45558864 0.74707311 1.1486049 4284960007
-0.4452343 0.74707311 1.1486049 4284960007
-0.43488002 0.74707311 1.1486049 4284960007
-0.42452574 0.74707311 1.1486049 4284960007
-0.41468915 0.74660671 1.1488297 4284960007
-0.40511143 0.74590701 1.1491663 4284960007
-0.39605147 0.74707311 1.1486049 4284960007
-0.38670385 0.74655485 1.1488544 4284960007
-0.37793145 0.74474084 1.1497279 4284960007
-0.35463428 0.74474084 1.1497279 4284960007
-0.49053431 0.75640196 1.1441122 4284960007
-0.48352945 0.75475711 1.1428864 4284960007
-0.47439358 0.75538069 1.1434941 4284960007
-0.46631268 0.75473613 1.1449145 4284960007
-0.45605761 0.7553798 1.1455559 4284960007
-0.4453567 0.75528407 1.1470721 4284960007
-0.43419999 0.75974149 1.1491635 4284960007
-0.42502856 0.75573957 1.1477611 4284960007
-0.41625333 0.75707352 1.1482285 4284960007
-0.40560001 0.75974149 1.1491635 4284960007
-0.39519998 0.75974149 1.1491635 4284960007
-0.38479999 0.75974149 1.1491635 4284960007
-0.37439999 0.75974149 1.1491635 4284960007
-0.36400002 0.75974149 1.1491635 4284960007
-0.3549 0.75974149 1.1491635 4284960007
-0.34579998 0.75974149 1.1491635 4284960007
-0.49210519 0.76478606 1.144918 4284960007
-0.48430967 0.76495445 1.1439892 4284960007
-0.47539404 0.76575828 1.1438445 4284960007
-0.46555755 0.7655403 1.1454833 4284960007
-0.45473999 0.76583207 1.1462305 4284960007
-0.44459999 0.76559776 1.1463434 4284960007
-0.43419996 0.76559782 1.1463434 4284960007
-0.42510003 0.76559776 1.1463432 4284960007
-0.41600001 0.76559776 1.1463434 4284960007
-0.40560004 0.76559782 1.1463432 4284960007
-0.39520001 0.76559776 1.1463434 4284960007
-0.38488665 0.76536351 1.1464562 4284960007
-0.37439999 0.76559782 1.1463434 4284960007
-0.36426002 0.76536345 1.1464562 4284960007
-0.35463712 0.76522249 1.1476339 4284960007
-0.34563652 0.76567489 1.1487728 4284960007
-0.33793333 0.76957774 1.1499763 4284960007
-0.49383885 0.77545685 1.1420224 4284960007
-0.48490006 0.77496791 1.1418309 4284960007
-0.47580004 0.77496779 1.1418309 4284960007
-0.46542725 0.77492309 1.1422225 4284960007
-0.45499995 0.77496767 1.1418309 4284960007
-0.44459999 0.77496779 1.1418308 4284960007
-0.43394002 0.7747336 1.1419437 4284960007
-0.42551571 0.77454931 1.1425874 4284960007
-0.41530195 0.77493048 1.1440688 4284960007
-0.40398097 0.77568758 1.1451842 4284960007
-0.39395526 0.77516806 1.1439544 4284960007
-0.38530481 0.77509993 1.1454672 4284960007
-0.37485716 0.77474427 1.1437886 4284960007
-0.36568925 0.77598983 1.1468885 4284960007
-0.35489526 0.77192885 1.148844 4284960007
-0.34628385 0.77286929 1.1483911 4284960007
-0.49616542 0.78560799 1.1422566 4284960007
-0.48667622 0.78721094 1.1414847 4284960007
-0.47362861 0.78721106 1.1414846 4284960007
-0.46753973 0.78564358 1.1422395 4284960007
-0.45144767 0.78838652 1.1409185 4284960007
-0.44455111 0.78670722 1.1417272 4284960007
-0.4373852 0.78603542 1.1420507 4284960007
-0.42562458 0.78564626 1.1442873 4284960007
-0.41504458 0.78460205 1.1432167 4284960007
-0.4044762 0.78485978 1.1426169 4284960007
-0.39477786 0.78509307 1.1439316 4284960007
-0.3851777 0.78639793 1.1467193 4284960007
-0.37512133 0.78597587 1.1465192 4284960007
-0.3648791 0.78514534 1.1471409 4284960007
-0.35579431 0.78534544 1.1490424 4284960007
-0.34858668 0.78711653 1.1481895 4284960007
-0.32106668 0.78475511 1.1493267 4284960007
-0.31451428 0.78475511 1.1493267 4284960007
-0.50505751 0.7932561 1.145233 4284960007
-0.49732572 0.79420072 1.144778 4284960007
-0.48880765 0.79774278 1.1430721 4284960007
-0.47701335 0.79892349 1.1425036 4284960007
-0.46521908 0.79892349 1.1425036 4284960007
-0.45604572 0.79892349 1.1425036 4284960007
-0.44591936 0.79677689 1.1435375 4284960007
-0.43507808 0.79774284 1.1430721 4284960007
-0.42616686 0.79608983 1.1438683 4284960007
-0.41568309 0.79608983 1.1438682 4284960007
-0.40428191 0.79833317 1.1427879 4284960007
-0.39516816 0.79591805 1.1439509 4284960007
-0.38528001 0.79538137 1.1442094 4284960007
-0.37442181 0.79487544 1.1444533 4284960007
-0.3656362 0.7982716 1.1483672 4284960007
-0.35511431 0.79827166 1.1483669 4284960007
-0.34459242 0.79827166 1.148367 4284960007
-0.3340705 0.79827166 1.1483672 4284960007
-0.32486379 0.79827166 1.1483672 4284960007
-0.31565714 0.7982716 1.1483672 4284960007
-0.30513525 0.7982716 1.1483672 4284960007
-0.2972438 0.79827166 1.148367 4284960007
-0.27356952 0.7970866 1.1489377 4284960007
-0.49667048 0.80364627 1.1402292 4284960007
-0.48618668 0.80246556 1.1407979 4284960007
-0.47439235 0.8024655 1.1407979 4284960007
-0.46521908 0.80246556 1.1407979 4284960007
-0.45572132 0.80462253 1.141609 4284960007
-0.44588795 0.80318451 1.1410682 4284960007
-0.43507808 0.8024655 1.1407977 4284960007
-0.42452964 0.80405182 1.1416987 4284960007
-0.41511366 0.80559605 1.1429899 4284960007
-0.40518451 0.8062526 1.1435146 4284960007
-0.39474043 0.80564266 1.1440246 4284960007
-0.38374606 0.80620199 1.1445481 4284960007
-0.37510595 0.80609256 1.1446009 4284960007
-0.36563614 0.80538154 1.1449432 4284960007
-0.35549009 0.80487365 1.1451877 4284960007
-0.34766126 0.80261654 1.1462747 4284960007
-0.33170304 0.80324852 1.1459703 4284960007
-0.32486385 0.80538154 1.1449431 4284960007
-0.31609556 0.80340654 1.1458942 4284960007
-0.30469686 0.8018266 1.1466551 4284960007
-0.29855904 0.80182654 1.1466551 4284960007
-0.49531871 0.8132025 1.1411768 4284960007
-0.48374459 0.8132025 1.1411768 4284960007
-0.474801 0.81367654 1.1409485 4284960007
-0.46503061 0.81266075 1.1414375 4284960007
-0.45507237 0.81249148 1.1415192 4284960007
-0.44586572 0.81249142 1.1415191 4284960007
-0.43218723 0.8127284 1.1414051 4284960007
-0.42482191 0.81249154 1.1415193 4284960007
-0.41561523 0.81249142 1.1415191 4284960007
-0.40509334 0.81249148 1.1415192 4284960007
-0.39457142 0.81249142 1.1415191 4284960007
-0.38404953 0.81249142 1.1415191 4284960007
-0.37409773 0.81498659 1.1432773 4284960007
-0.36484477 0.81648642 1.1452304 4284960007
-0.35351992 0.81587273 1.1465504 4284960007
-0.34476861 0.81483144 1.147052 4284960007
-0.33573049 0.81508183 1.1469314 4284960007
-0.32421345 0.81575942 1.1445559 4284960007
-0.314827 0.81443471 1.1472431 4284960007
-0.30447954 0.8142364 1.1473385 4284960007
-0.29581565 0.81413138 1.1473892 4284960007
-0.28561926 0.81430233 1.1473068 4284960007
-0.27393252 0.81408751 1.1474103 4284960007
-0.26697919 0.81430238 1.1473066 4284960007
-0.47290099 0.82911301 1.1401742 4284960007
-0.46530548 0.82703018 1.1411771 4284960007
-0.45572859 0.82732779 1.1410339 4284960007
-0.42270476 0.82911301 1.1401742 4284960007
-0.41565973 0.82831955 1.1405562 4284960007
-0.40500402 0.8269707 1.1412057 4284960007
-0.39408413 0.8259393 1.1417024 4284960007
-0.38571811 0.82792282 1.1407473 4284960007
-0.37477309 0.82605255 1.1416478 4284960007
-0.36458287 0.82554251 1.1418935 4284960007
-0.35412201 0.8246007 1.1428095 4284960007
-0.34476858 0.82435238 1.1424667 4284960007
-0.33589932 0.82503247 1.1421392 4284960007
-0.32495433 0.82435238 1.1424667 4284960007
-0.31477568 0.82581562 1.1451775 4284960007
-0.30548632 0.82687807 1.1463376 4284960007
-0.29529253 0.82621831 1.1463251 4284960007
-0.28516269 0.82608187 1.1467211 4284960007
-0.2761274 0.82664162 1.1469141 4284960007
-0.26514286 0.82493526 1.1477356 4284960007
-0.25851429 0.82374084 1.1483109 4284960007
-0.22457603 0.82302421 1.1486561 4284960007
-0.21675429 0.82314366 1.1485986 4284960007
-0.35491267 0.83517331 1.1428055 4284960007
-0.34556955 0.83528703 1.1427505 4284960007
-0.33408007 0.83449078 1.143134 4284960007
-0.32446858 0.8341921 1.1432778 4284960007
-0.31507808 0.8346898 1.1430382 4284960007
-0.30529308 0.83517337 1.1428055 4284960007
-0.29404345 0.83544636 1.1426739 4284960007
-0.28490818 0.83578587 1.1430652 4284960007
-0.27512917 0.83593017 1.1464366 4284960007
-0.50993717 0.84528512 1.1445951 4284960007
-0.34369883 0.84459978 1.1449254 4284960007
-0.3352128 0.84491599 1.1447728 4284960007
-0.32517585 0.84491599 1.1447729 4284960007
-0.31506449 0.84528512 1.1445953 4284960007
-0.3045643 0.84558505 1.1444507 4284960007
-0.29690862 0.84648466 1.1440175 4284960007
-0.28403816 0.84528512 1.1445951 4284960007
-0.27427429 0.84408551 1.145173 4284960007
-0.2647543 0.84891289 1.1495075 4284960007
-0.25405717 0.84891289 1.1495075 4284960007
-0.24737145 0.84891289 1.1495075 4284960007
-0.5126 0.85008341 1.1422844 4284960007
-0.50594288 0.85008341 1.1422844 4284960007
-0.3435086 0.85128295 1.1417067 4284960007
-0.33493719 0.85182285 1.1421868 4284960007
-0.32414034 0.85276467 1.142473 4284960007
-0.31477955 0.85401046 1.143168 4284960007
-0.30464858 0.85553235 1.1452098 4284960007
-0.29419172 0.85536528 1.1445839 4284960007
-0.28485715 0.85444099 1.1441816 4284960007
-0.27545145 0.85614127 1.1460266 4284960007
-0.26308286 0.85343057 1.1473318 4284960007
-0.25515118 0.8539508 1.1470815 4284960007
-0.24737145 0.85132235 1.1483473 4284960007
-0.51212573 0.8681885 1.1402249 4284960007
-0.50945145 0.8681885 1.1402249 4284960007
-0.36236572 0.8681885 1.1402249 4284960007
-0.35880002 0.86738539 1.1406116 4284960007
-0.34555596 0.86715585 1.1407222 4284960007
-0.33348343 0.8677066 1.140457 4284960007
-0.32468259 0.86490285 1.1418072 4284960007
-0.31556576 0.86457425 1.1419653 4284960007
-0.30486855 0.86457431 1.1419653 4284960007
-0.29397064 0.86458653 1.1429107 4284960007
-0.28481144 0.86457437 1.1419653 4284960007
-0.27545142 0.86457425 1.1419653 4284960007
-0.26615432 0.86609137 1.1478946 4284960007
-0.2555905 0.86463952 1.1485937 4284960007
-0.24440002 0.86302632 1.1493706 4284960007
-0.23473144 0.86512345 1.1483606 4284960007
-0.22724128 0.86463952 1.1485935 4284960007
-0.21566287 0.86318761 1.1492929 4284960007
-0.15308572 0.86342961 1.1491764 4284960007
-0.51162857 0.87673819 1.1427672 4284960007
-0.50894284 0.8791579 1.1416019 4284960007
-0.31109524 0.87835139 1.1419904 4284960007
-0.30444494 0.87742966 1.1424344 4284960007
-0.29632384 0.87633491 1.1429613 4284960007
-0.28871432 0.87794805 1.1421845 4284960007
-0.27349526 0.87835139 1.1419904 4284960007
-0.26516321 0.87638593 1.1466366 4284960007
-0.25470003 0.87741882 1.1479889 4284960007
-0.24526668 0.87741888 1.1479889 4284960007
-0.23448572 0.87741888 1.1479889 4284960007
-0.22505239 0.87741888 1.1479889 4284960007
-0.21561907 0.87741894 1.1479889 4284960007
-0.20483813 0.87741888 1.1479889 4284960007
-0.19405715 0.87741888 1.147989 4284960007
-0.18496071 0.87711537 1.1481351 4284960007
-0.17519049 0.87741876 1.147989 4284960007
-0.16440953 0.87741888 1.147989 4284960007
-0.1549762 0.87741882 1.1479889 4284960007
-0.14554286 0.87741888 1.147989 4284960007
-0.13476191 0.87741888 1.1479889 4284960007
-0.12532857 0.87741888 1.147989 4284960007
-0.11589524 0.87741876 1.147989 4284960007
-0.10466508 0.87687922 1.1482487 4284960007
-0.093965791 0.8771981 1.1480953 4284960007
-0.086517148 0.87693322 1.1482228 4284960007
-0.071423814 0.87499052 1.1491584 4284960007
-0.06387715 0.87547618 1.1489245 4284960007
-0.05486735 0.87672508 1.1483231 4284960007
-0.045819055 0.87741876 1.147989 4284960007
-0.037733339 0.87741888 1.147989 4284960007
-0.50894284 0.88157773 1.1404366 4284960007
-0.31422859 0.88157773 1.1404366 4284960007
-0.30482861 0.88157773 1.1404366 4284960007
-0.2954286 0.88157773 1.1404366 4284960007
-0.28737146 0.88157773 1.1404366 4284960007
-0.27276325 0.88405788 1.1424134 4284960007
-0.26422319 0.88567525 1.144013 4284960007
-0.25530264 0.88594532 1.1455476 4284960007
-0.24358916 0.88448286 1.1459191 4284960007
-0.23411819 0.8844831 1.144587 4284960007
-0.22455008 0.88473511 1.1463685 4284960007
-0.21607336 0.88536549 1.1474919 4284960007
-0.20505811 0.88442755 1.1462786 4284960007
-0.19405717 0.88470381 1.1444807 4284960007
-0.18578129 0.88554966 1.1462932 4284960007
-0.17478733 0.88639545 1.1481059 4284960007
-0.16448097 0.88459343 1.1451999 4284960007
-0.15437724 0.88497365 1.1443506 4284960007
-0.14581239 0.88567531 1.144013 4284960007
-0.13533556 0.88472813 1.1459489 4284960007
-0.12485893 0.88580692 1.1477551 4284960007
-0.11552586 0.88492411 1.1472288 4284960007
-0.10556 0.88845533 1.1493337 4284960007
-0.094733343 0.88845533 1.1493337 4284960007
-0.085260019 0.88845533 1.1493337 4284960007
-0.075335562 0.88845533 1.1493337 4284960007
-0.06496001 0.88845533 1.1493337 4284960007
-0.054698572 0.8859725 1.1471995 4284960007
-0.045241501 0.88557112 1.144063 4284960007
-0.037733335 0.88591796 1.143896 4284960007
0.028420003 0.88845533 1.1493337 4284960007
0.035186671 0.88845533 1.1493337 4284960007
0.044660002 0.88845533 1.1493337 4284960007
0.054133341 0.88845533 1.1493337 4284960007
0.06496001 0.88845533 1.1493337 4284960007
0.071726672 0.88845533 1.1493337 4284960007
-0.27087143 0.89198887 1.1409724 4284960007
-0.26485157 0.89574349 1.144344 4284960007
-0.25384673 0.89490014 1.14623 4284960007
-0.24495336 0.89455175 1.1463977 4284960007
-0.23579235 0.89539599 1.1459912 4284960007
-0.2260067 0.89228743 1.1474882 4284960007
-0.21518002 0.89089394 1.1481593 4284960007
-0.20480447 0.89170682 1.1477679 4284960007
-0.19451092 0.89554948 1.1459172 4284960007
-0.18540668 0.89414531 1.1465935 4284960007
-0.17647469 0.8928448 1.1472198 4284960007
-0.16429469 0.89455187 1.1463978 4284960007
-0.15514123 0.89577115 1.1458106 4284960007
-0.14442001 0.89646792 1.145475 4284960007
-0.13587467 0.89357644 1.1468675 4284960007
-0.12450668 0.89089394 1.1481593 4284960007
-0.11503335 0.89089394 1.1481593 4284960007
-0.10420667 0.89272285 1.1472784 4284960007
-0.094421029 0.89370775 1.1468042 4284960007
-0.085260004 0.89455187 1.1463977 4284960007
-0.077741496 0.89414543 1.1465935 4284960007
-0.064283341 0.89150357 1.1478657 4284960007
-0.053404618 0.89389533 1.1467139 4284960007
-0.044565719 0.89509934 1.1428044 4284960007
-0.036153339 0.89646792 1.145475 4284960007
0.035186671 0.89089394 1.1481593 4284960007
0.045201339 0.89186937 1.1476895 4284960007
0.051426671 0.89211321 1.147572 4284960007
0.065540016 0.89420348 1.1465654 4284960007
0.071726672 0.89455187 1.1463977 4284960007
-0.27202004 0.90308708 1.1422875 4284960007
-0.26525337 0.90308702 1.1422873 4284960007
-0.25469384 0.90404028 1.1434932 4284960007
-0.24451314 0.90322345 1.1428876 4284960007
-0.23573796 0.90573436 1.1452503 4284960007
-0.22913542 0.90494102 1.148054 4284960007
-0.2106524 0.90567565 1.1477002 4284960007
-0.2052162 0.90567577 1.1477002 4284960007
-0.19601649 0.90652353 1.1472918 4284960007
-0.18455869 0.90592068 1.1475822 4284960007
-0.17531715 0.90567583 1.1477002 4284960007
-0.16590838 0.90595835 1.1475639 4284960007
-0.15471429 0.90563267 1.1455011 4284960007
-0.14571743 0.90565729 1.1467577 4284960007
-0.13517296 0.90539318 1.1478363 4284960007
-0.12639144 0.90322679 1.1488795 4284960007
-0.11280096 0.90340173 1.1487954 4284960007
-0.10464668 0.90567577 1.1477001 4284960007
-0.095379636 0.90566719 1.1472603 4284960007
-0.084731437 0.90564996 1.1463808 4284960007
-0.074747622 0.90281862 1.1490761 4284960007
-0.065234289 0.90200233 1.1494691 4284960007
-0.053704679 0.90531826 1.1466614 4284960007
-0.04467969 0.90351188 1.1428227 4284960007
-0.036591429 0.90436155 1.1438935 4284960007
-0.020385714 0.90200233 1.1494691 4284960007
-0.01766762 0.90200233 1.1494691 4284960007
0.016580382 0.90494102 1.148054 4284960007
0.020385716 0.90445125 1.1482899 4284960007
0.039412383 0.90200233 1.1494691 4284960007
0.044848569 0.90200233 1.1494691 4284960007
0.055177338 0.90249217 1.1492332 4284960007
0.064737409 0.90427923 1.1453457 4284960007
0.074747622 0.90322673 1.1488795 4284960007
-0.27113 0.91730803 1.1420983 4284960007
-0.26501429 0.91669583 1.1423931 4284960007
-0.25562453 0.91536003 1.1430365 4284960007
-0.24417557 0.91587955 1.1427863 4284960007
-0.2345162 0.91599578 1.1432853 4284960007
-0.22582765 0.91613817 1.14837 4284960007
-0.21552168 0.91638219 1.1483712 4284960007
-0.20495279 0.91409647 1.1445963 4284960007
-0.19624539 0.91385776 1.1444997 4284960007
-0.18521906 0.91494453 1.1465663 4284960007
-0.17441313 0.91542363 1.1471679 4284960007
-0.1651362 0.91686141 1.148973 4284960007
-0.15558286 0.91686141 1.148973 4284960007
-0.14466478 0.91686141 1.1489729 4284960007
-0.13511144 0.91686147 1.148973 4284960007
-0.12555811 0.91686141 1.148973 4284960007
-0.1144 0.91494203 1.1465676 4284960007
-0.1049381 0.91558355 1.1473686 4284960007
-0.095533341 0.91686141 1.148973 4284960007
-0.084615238 0.91686141 1.148973 4284960007
-0.07506191 0.91661549 1.1490915 4284960007
-0.065508574 0.91686141 1.148973 4284960007
-0.054536194 0.91590297 1.1477696 4284960007
-0.044217616 0.91520798 1.1447746 4284960007
-0.036263179 0.91529483 1.1441778 4284960007
-0.023200955 0.91686141 1.148973 4284960007
-0.015012383 0.91686141 1.148973 4284960007
-0.0081885718 0.91686141 1.148973 4284960007
0.0081885718 0.91686141 1.148973 4284960007
0.015012382 0.91686141 1.148973 4284960007
0.021836191 0.91686141 1.148973 4284960007
0.046401907 0.91686141 1.148973 4284960007
0.054785445 0.91668582 1.1490576 4284960007
0.064923681 0.91668576 1.1490576 4284960007
0.53498667 0.91686141 1.148973 4292827821
0.57319999 0.91563183 1.1495651 4292827821
0.58138859 0.91563183 1.1495651 4292827821
0.6182372 0.91563183 1.1495651 4292827821
0.62096667 0.91563183 1.1495651 4292827821
0.65372097 0.91563183 1.1495651 4292827821
-0.27180952 0.92159367 1.1400344 4284960007
-0.2632764 0.92363548 1.1417149 4284960007
-0.25490722 0.9251954 1.1449596 4284960007
-0.24602936 0.92569214 1.1447203 4284960007
-0.23392022 0.92571461 1.1447095 4284960007
-0.22518574 0.92423916 1.1454201 4284960007
-0.21563241 0.9242391 1.1454201 4284960007
-0.20510425 0.92476612 1.1451663 4284960007
-0.19516097 0.92423904 1.1454201 4284960007
-0.18560763 0.92423922 1.1454202 4284960007
-0.17468953 0.9242391 1.1454201 4284960007
-0.16513622 0.92423904 1.1454201 4284960007
-0.15558286 0.92423916 1.14542 4284960007
-0.14466476 0.92423922 1.14542 4284960007
-0.13511145 0.92423916 1.1454201 4284960007
-0.12528515 0.92399317 1.1455387 4284960007
-0.11491296 0.92399323 1.1455386 4284960007
-0.10489398 0.92435718 1.1459181 4284960007
-0.09568119 0.92415524 1.1479578 4284960007
-0.084300302 0.92452288 1.1452833 4284960007
-0.07506191 0.9238292 1.1456175 4284960007
-0.065508574 0.9230094 1.1460123 4284960007
-0.05431753 0.92399329 1.1455387 4284960007
-0.045583047 0.9247309 1.1451832 4284960007
-0.035650052 0.92589909 1.1453605 4284960007
-0.024668571 0.92934358 1.1496211 4284960007
-0.015075239 0.92934358 1.1496212 4284960007
-0.0054819048 0.92934358 1.1496211 4284960007
0.0068302378 0.92507732 1.1475136 4284960007
0.015012382 0.92300934 1.1460122 4284960007
0.024028381 0.9238888 1.1462547 4284960007
0.034627303 0.92594063 1.1468204 4284960007
0.045225717 0.92934358 1.1496212 4284960007
0.054819047 0.92934358 1.1496211 4284960007
0.065577142 0.92459303 1.1469145 4284960007
0.44540477 0.92934358 1.1496212 4292827821
0.45088667 0.92934358 1.1496211 4292827821
0.5344857 0.92934358 1.1496211 4292827821
0.56737715 0.92934358 1.1496211 4292827821
0.57560003 0.92934358 1.1496211 4292827821
0.58382285 0.92934358 1.1496211 4292827821
0.59615719 0.92934358 1.1496212 4292827821
0.60575044 0.92934358 1.1496211 4292827821
0.61534387 0.92934358 1.1496212 4292827821
0.6221962 0.92934358 1.1496211 4292827821
0.64280289 0.92423904 1.1454201 4292827821
-0.27267945 0.93333817 1.1410382 4284960007
-0.26476383 0.93284631 1.1412752 4284960007
-0.25521052 0.93284631 1.141275 4284960007
-0.24574336 0.93317264 1.1416731 4284960007
-0.23473905 0.93284643 1.1412749 4284960007
-0.22518574 0.93284631 1.1412749 4284960007
-0.21593046 0.93415087 1.1428665 4284960007
-0.20542666 0.93610287 1.1452562 4284960007
-0.19460762 0.93675196 1.1460534 4284960007
-0.18424286 0.93284631 1.141275 4284960007
-0.17468953 0.93284625 1.1412752 4284960007
-0.1651362 0.93284631 1.141275 4284960007
-0.15558286 0.93284643 1.141275 4284960007
-0.14476384 0.93349886 1.1420707 4284960007
-0.13381547 0.9351728 1.1447649 4284960007
-0.1244835 0.93501949 1.1439281 4284960007
-0.11457957 0.9345718 1.1440299 4284960007
-0.10376463 0.9360466 1.1463933 4284960007
-0.094401419 0.93388909 1.1446575 4284960007
-0.084701434 0.9338237 1.1424692 4284960007
-0.07503923 0.93478793 1.1451832 4284960007
-0.065730363 0.9347831 1.145753 4284960007
-0.055083886 0.93547326 1.1451324 4284960007
-0.045162853 0.93545365 1.144459 4284960007
-0.036102291 0.93381447 1.1441385 4284960007
-0.024294805 0.93405819 1.1473508 4284960007
-0.015075238 0.9342826 1.1472427 4284960007
-0.0052078101 0.93527043 1.146767 4284960007
0.0056776875 0.93551737 1.146648 4284960007
0.015075239 0.93551731 1.146648 4284960007
0.024668572 0.93551731 1.146648 4284960007
0.035632383 0.93551737 1.146648 4284960007
0.045225717 0.93551731 1.146648 4284960007
0.054819047 0.93551737 1.146648 4284960007
0.065717146 0.93454218 1.1454529 4284960007
0.44540477 0.93181312 1.148432 4292827821
0.45088667 0.93181306 1.1484319 4292827821
0.53311527 0.93181312 1.148432 4292827821
0.57834101 0.93181306 1.1484319 4292827821
0.60666412 0.93263626 1.1480355 4292827821
0.61397338 0.93304777 1.1478373 4292827821
-0.27409524 0.94909966 1.1401072 4284960007
-0.26587239 0.94909966 1.1401072 4284960007
-0.25764951 0.94909966 1.1401072 4284960007
-0.24531524 0.94909972 1.1401072 4284960007
-0.23572192 0.94909966 1.1401072 4284960007
-0.22393583 0.94687712 1.1411775 4284960007
-0.21516475 0.94539541 1.141891 4284960007
-0.20557141 0.94539535 1.141891 4284960007
-0.19460762 0.94539541 1.141891 4284960007
-0.17130952 0.94663018 1.1412964 4284960007
-0.16445714 0.94786483 1.1407018 4284960007
-0.15525538 0.94733572 1.1409566 4284960007
-0.14527047 0.94539547 1.141891 4284960007
-0.13430667 0.94539541 1.141891 4284960007
-0.12471332 0.94539541 1.141891 4284960007
-0.11512 0.94539547 1.141891 4284960007
-0.10415618 0.94539541 1.141891 4284960007
-0.095248096 0.94663006 1.1412964 4284960007
-0.084969521 0.94786483 1.1407018 4284960007
-0.074690953 0.94663006 1.1412964 4284960007
-0.066239685 0.94745332 1.1409 4284960007
-0.055093143 0.9453131 1.1419307 4284960007
-0.045669522 0.94493264 1.1440166 4284960007
-0.035166476 0.94454092 1.1462983 4284960007
-0.02477143 0.94561762 1.1484437 4284960007
-0.015138094 0.94561756 1.1484436 4284960007
-0.0059634922 0.94644409 1.1480454 4284960007
0.0058025639 0.94594103 1.1436774 4284960007
0.015324417 0.9450587 1.1420532 4284960007
0.024668571 0.94539535 1.141891 4284960007
0.035328873 0.94503325 1.1425776 4284960007
0.045414291 0.94685757 1.1478466 4284960007
0.055016909 0.94636661 1.1472504 4284960007
0.064748049 0.94404918 1.1432792 4284960007
0.072020635 0.94561756 1.1484437 4284960007
0.10734286 0.94313776 1.1496378 4292827821
0.13569239 0.94536966 1.1485633 4292827821
0.14415595 0.94530761 1.1485929 4292827821
0.15092222 0.94396436 1.1492398 4292827821
0.18499936 0.94420063 1.1491261 4292827821
0.1934924 0.94412965 1.1491601 4292827821
0.37707621 0.94313776 1.1496378 4292827821
0.382581 0.94313776 1.1496378 4292827821
0.39496669 0.94313782 1.1496379 4292827821
0.40460002 0.94313776 1.1496378 4292827821
0.41148096 0.94313776 1.1496378 4292827821
0.43570191 0.94536954 1.1485629 4292827821
0.44450951 0.94561768 1.1484437 4292827821
0.45276669 0.94561756 1.1484438 4292827821
0.51194286 0.94685745 1.1478466 4292827821
0.53588861 0.94412965 1.1491601 4292827821
0.54084283 0.94313776 1.1496378 4292827821
0.56616479 0.94412965 1.1491601 4292827821
0.57433021 0.94396436 1.1492398 4292827821
0.60800099 0.94462556 1.1489214 4292827821
0.61515713 0.94561756 1.1484438 4292827821
0.64636922 0.9455418 1.1462603 4292827821
0.65231431 0.94685751 1.1478465 4292827821
-0.085323811 0.95801663 1.1424725 4284960007
-0.050919048 0.95429695 1.1442639 4284960007
-0.044863813 0.95429689 1.1442639 4284960007
-0.036174156 0.95376563 1.1445198 4284960007
-0.02477143 0.95429683 1.144264 4284960007
-0.015138093 0.95429701 1.144264 4284960007
-0.0055047618 0.95429695 1.1442641 4284960007
0.0051294374 0.95553678 1.1436669 4284960007
0.014744897 0.95624548 1.1433256 4284960007
0.02477143 0.95677662 1.1430696 4284960007
0.036239684 0.95553684 1.1436669 4284960007
0.045414291 0.95429701 1.144264 4284960007
0.05504762 0.95429689 1.144264 4284960007
0.064956188 0.95504075 1.1439056 4284960007
0.070185713 0.95305705 1.144861 4284960007
0.13486668 0.95057726 1.1460552 4292827821
0.43680286 0.95380098 1.1445029 4292827821
0.44450957 0.95429695 1.1442639 4292827821
0.4525165 0.95395887 1.1444268 4292827821
0.6096524 0.95057726 1.1460552 4292827821
0.61240476 0.95057726 1.1460552 4292827821
0.64598387 0.95504093 1.1439056 4292827821
-0.19266668 0.96297622 1.1400841 4284960007
-0.18440953 0.96173638 1.1406813 4284960007
-0.1747762 0.96173638 1.1406813 4284960007
-0.13624287 0.96173638 1.1406813 4284960007
-0.12523334 0.96297622 1.1400841 4284960007
-0.10046191 0.96173632 1.1406813 4284960007
-0.094957143 0.96173632 1.1406813 4284960007
-0.085323811 0.96173638 1.1406813 4284960007
-0.075690478 0.96297622 1.1400841 4284960007
-0.054221906 0.96248025 1.140323 4284960007
-0.045414291 0.96173632 1.1406813 4284960007
-0.035262477 0.96192068 1.1421465 4284960007
-0.02477143 0.96173644 1.1406813 4284960007
-0.015138096 0.96173632 1.1406813 4284960007
-0.0055147619 0.96290255 1.1420619 4284960007
0.0055047623 0.96173632 1.1406813 4284960007
0.015138095 0.96173638 1.1406813 4284960007
0.024771431 0.96173638 1.1406813 4284960007
0.035780951 0.96173644 1.1406813 4284960007
0.045414291 0.96173638 1.1406813 4284960007
0.055047616 0.96173638 1.1406813 4284960007
0.064680956 0.96173632 1.1406813 4284960007
0.071631998 0.96365422 1.1475271 4284960007
0.12860571 0.9614116 1.148607 4292827821
0.13611266 0.96354741 1.1475785 4292827821
0.14485428 0.96234608 1.148157 4292827821
0.15073143 0.9614116 1.148607 4292827821
0.17700574 0.96265757 1.1480069 4292827821
0.1811543 0.9614116 1.148607 4292827821
0.19636571 0.96016568 1.149207 4292827821
0.20051429 0.96016568 1.149207 4292827821
0.29593143 0.96016568 1.149207 4292827821
0.3034603 0.96210372 1.1482737 4292827821
0.31321716 0.96078867 1.1489071 4292827821
0.33879998 0.96016568 1.149207 4292827821
0.34749228 0.96230155 1.1481785 4292827821
0.35539433 0.96390331 1.1474069 4292827821
0.36507428 0.96390337 1.1474071 4292827821
0.37475428 0.96265751 1.148007 4292827821
0.38443425 0.96390349 1.1474071 4292827821
0.39549717 0.96390343 1.1474069 4292827821
0.40517718 0.96390343 1.1474071 4292827821
0.41485718 0.96390337 1.1474071 4292827821
0.42453718 0.96390343 1.1474071 4292827821
0.43362445 0.96425933 1.1472356 4292827821
0.44393253 0.96348417 1.142753 4292827821
0.4550437 0.96519649 1.1456743 4292827821
0.46602288 0.96116239 1.1487269 4292827821
0.484 0.9614116 1.148607 4292827821
0.49468574 0.96243107 1.1481161 4292827821
0.50508857 0.96234602 1.148157 4292827821
0.51469946 0.9636544 1.1475271 4292827821
0.52548569 0.96390343 1.1474068 4292827821
0.53516579 0.96390337 1.1474069 4292827821
0.54452658 0.96304089 1.1478224 4292827821
0.55427438 0.9635638 1.1475707 4292827821
0.56558859 0.96311063 1.147789 4292827821
0.57526863 0.96390325 1.1474069 4292827821
0.58402663 0.96348804 1.1476071 4292827821
0.59416765 0.96016568 1.149207 4292827821
0.60643607 0.96323258 1.1477301 4292827821
0.6150949 0.96315593 1.1477669 4292827821
0.62524903 0.96123362 1.1486927 4292827821
0.63473141 0.96016568 1.149207 4292827821
0.64358175 0.96340507 1.1476469 4292827821
-0.19221714 0.97760844 1.140807 4284960007
-0.18364343 0.97461838 1.1422471 4284960007
-0.1452 0.97760844 1.140807 4284960007
-0.13413715 0.97636253 1.141407 4284960007
-0.12307429 0.97760844 1.140807 4284960007
-0.11616001 0.97760844 1.140807 4284960007
-0.051165711 0.97636253 1.141407 4284960007
-0.03318857 0.97636259 1.141407 4284960007
-0.024891432 0.97511667 1.142007 4284960007
-0.015211431 0.97387075 1.1426071 4284960007
-0.0055314288 0.97387075 1.1426071 4284960007
0.0044942857 0.97605109 1.1415571 4284960007
0.012445714 0.97760844 1.140807 4284960007
0.037337143 0.97760844 1.140807 4284960007
0.044251435 0.97636259 1.141407 4284960007
0.054968566 0.97449362 1.142307 4284960007
0.066377148 0.97262484 1.143207 4284960007
0.070525713 0.97387075 1.142607 4284960007
0.12705429 0.97476739 1.1488348 4284960007
0.13503857 0.97633123 1.1480817 4292827821
0.14357829 0.9763937 1.1480516 4292827821
0.1513543 0.97414184 1.1491361 4292827821
0.16801715 0.97539294 1.1485336 4292827821
0.17551543 0.97614348 1.148172 4292827821
0.18329144 0.97539288 1.1485336 4292827821
0.28326857 0.97414184 1.1491361 4292827821
0.29715431 0.97414184 1.1491361 4292827821
0.30965143 0.97414184 1.1491361 4292827821
0.31520575 0.97414184 1.1491361 4292827821
0.33742285 0.97414184 1.1491361 4292827821
0.345332 0.9754926 1.1478195 4292827821
0.35572052 0.97650707 1.1473918 4292827821
0.36544573 0.97559196 1.1471061 4292827821
0.37529302 0.97687137 1.1478217 4292827821
0.38454649 0.97362459 1.1432014 4292827821
0.39549714 0.97262478 1.1432071 4292827821
0.40595603 0.97432899 1.1443841 4292827821
0.41473621 0.97417307 1.1446813 4292827821
0.42413718 0.97433466 1.1434935 4292827821
0.4342171 0.97387081 1.1426071 4292827821
0.44488493 0.97440481 1.14235 4292827821
0.45495996 0.97387075 1.142607 4292827821
0.4651714 0.9766441 1.147931 4292827821
0.47489148 0.97664398 1.1479311 4292827821
0.48461145 0.97664398 1.147931 4292827821
0.49433142 0.97664398 1.1479311 4292827821
0.50544012 0.97664392 1.1479311 4292827821
0.51516002 0.97664398 1.1479311 4292827821
0.5243386 0.97564173 1.146749 4292827821
0.53471202 0.97559196 1.1471057 4292827821
0.54449564 0.97650707 1.1473918 4292827821
0.55542862 0.97664392 1.1479311 4292827821
0.56514859 0.97664398 1.1479311 4292827821
0.57546067 0.97530496 1.1463561 4292827821
0.58356571 0.97262478 1.1432071 4292827821
0.59430861 0.97664398 1.1479311 4292827821
0.60541719 0.97664398 1.1479311 4292827821
0.61513716 0.97664398 1.1479312 4292827821
0.62485713 0.97664404 1.1479311 4292827821
0.63457721 0.97664398 1.147931 4292827821
0.64429718 0.97664404 1.1479311 4292827821
0.65123999 0.97539294 1.1485336 4292827821
0.044712003 0.98590183 1.1434728 4284960007
0.052567348 0.9859376 1.1434555 4284960007
0.13524573 0.98820037 1.1490253 4292827821
0.14500573 0.98820031 1.1490253 4292827821
0.15476573 0.98820037 1.1490253 4292827821
0.16452572 0.98820031 1.1490253 4292827821
0.17568001 0.98820031 1.1490253 4292827821
0.18544003 0.98820037 1.1490253 4292827821
0.1952 0.98820031 1.1490253 4292827821
0.20496003 0.98820037 1.1490253 4292827821
0.21193144 0.98820031 1.1490253 4292827821
0.26909718 0.98820031 1.1490253 4292827821
0.27188572 0.98820031 1.1490253 4292827821
0.30813718 0.98820031 1.1490253 4292827821
0.31371433 0.98820037 1.1490253 4292827821
0.33741716 0.98820031 1.1490253 4292827821
0.34578288 0.98820031 1.1490253 4292827821
0.3555429 0.98820037 1.1490253 4292827821
0.36530289 0.98820031 1.1490253 4292827821
0.37584001 0.98456728 1.1441153 4292827821
0.38423759 0.98486531 1.1439719 4292827821
0.39435431 0.98415035 1.1443162 4292827821
0.40556967 0.98511261 1.1438527 4292827821
0.41543537 0.98574269 1.1435494 4292827821
0.42490289 0.9859376 1.1434554 4292827821
0.43462285 0.98665249 1.1431112 4292827821
0.44184348 0.98765337 1.1426293 4292827821
0.46517143 0.98540139 1.1437137 4292827821
0.47425428 0.98430508 1.1449075 4292827821
0.48486394 0.98506021 1.1438781 4292827821
0.49471012 0.98392284 1.1444256 4292827821
0.50544 0.98289931 1.1449187 4292827821
0.51516008 0.98289931 1.1449187 4292827821
0.52487993 0.98540139 1.1437137 4292827821
0.53460002 0.98540151 1.1437137 4292827821
0.54432011 0.98540145 1.1437136 4292827821
0.55542856 0.98540139 1.1437137 4292827821
0.56514859 0.98540133 1.1437137 4292827821
0.57486856 0.98540151 1.1437137 4292827821
0.58458859 0.98540151 1.1437138 4292827821
0.59430856 0.98540145 1.1437137 4292827821
0.60541719 0.98540145 1.1437137 4292827821
0.6151371 0.98540139 1.1437137 4292827821
0.62389582 0.98511279 1.1438528 4292827821
0.63481253 0.985201 1.1444157 4292827821
0.64290857 0.98540151 1.1437137 4292827821
0.33741716 0.99071276 1.1478153 4292827821
0.34578291 0.99071276 1.1478153 4292827821
0.35275429 0.99071276 1.1478153 4292827821
0.42490286 0.99165666 1.1407013 4292827821
0.4429543 0.99165666 1.1407013 4292827821
0.45961717 0.99165666 1.1407013 4292827821
0.50426668 0.9932251 1.1466056 4292827821
0.53460002 0.99165666 1.1407013 4292827821
0.54432005 0.99165666 1.1407013 4292827821
0.55542862 0.99165666 1.1407013 4292827821
0.56514859 0.99165666 1.1407013 4292827821
0.57486862 0.99165666 1.1407013 4292827821
0.58458865 0.99165666 1.1407013 4292827821
0.59283286 0.99330497 1.1415724 4292827821
0.61513716 0.99165666 1.1407013 4292827821
0.62346864 0.99165666 1.1407013 4292827821
0.63442862 0.99463862 1.1448148 4292827821
0.64144862 0.99495333 1.1424434 4292827821
-0.49600002 0.59619826 1.1579971 4289289095
-0.49417052 0.60633838 1.1586634 4289289095
-0.486702 0.60537708 1.1591263 4289289095
-0.49387431 0.61738271 1.1588944 4289289095
-0.48531508 0.6172139 1.1589758 4289289095
-0.49335238 0.62755179 1.1595467 4289289095
-0.48415428 0.6279285 1.1593653 4289289095
-0.47788286 0.6279285 1.1593653 4289289095
-0.49327713 0.63566154 1.1566502 4289289095
-0.48442996 0.63404065 1.155629 4289289095
-0.47696105 0.6358552 1.1561646 4289289095
-0.46962479 0.63825303 1.1599429 4289289095
-0.50046003 0.64148939 1.1528347 4289289095
-0.48565942 0.64442754 1.1514199 4284960007
-0.47533929 0.6447835 1.1556295 4284960007
-0.46868047 0.64505917 1.1566651 4284960007
-0.42178094 0.6473279 1.1555727 4284960007
-0.41548568 0.64619356 1.1561189 4284960007
-0.40667239 0.64732796 1.1555725 4284960007
-0.49606475 0.6581043 1.1503829 4289289095
-0.4872514 0.65753716 1.150656 4289289095
-0.47500908 0.65636075 1.1562175 4284960007
-0.4656854 0.65573561 1.1581833 4284960007
-0.45531431 0.65547502 1.1583089 4284960007
-0.44494334 0.65573561 1.1581833 4284960007
-0.43507811 0.65596342 1.1580734 4284960007
-0.42549381 0.65634942 1.1573753 4284960007
-0.41525111 0.65575725 1.1551459 4284960007
-0.40473598 0.65565038 1.1565593 4284960007
-0.39618671 0.65453911 1.1587595 4284960007
-0.38828191 0.65254492 1.1597198 4284960007
-0.49411759 0.66498584 1.1570584 4284960007
-0.48693338 0.66719586 1.1526645 4284960007
-0.47561204 0.66488713 1.1554836 4284960007
-0.46479952 0.66520691 1.1567934 4284960007
-0.45421237 0.66532439 1.1570971 4284960007
-0.44306383 0.66586787 1.1588533 4284960007
-0.43461409 0.66616946 1.1575983 4284960007
-0.42479602 0.6656726 1.1572399 4284960007
-0.41387591 0.66406178 1.1572567 4284960007
-0.40561289 0.66472405 1.159404 4284960007
-0.39685318 0.6650672 1.1592389 4284960007
-0.32499808 0.66415215 1.1596795 4284960007
-0.50146192 0.67787778 1.1530696 4284960007
-0.49484155 0.67614466 1.1561241 4284960007
-0.48392698 0.67398584 1.1530939 4284960007
-0.47498834 0.6749661 1.156553 4284960007
-0.46408281 0.67420083 1.1563541 4284960007
-0.45504335 0.67404443 1.1557695 4284960007
-0.44433329 0.67444634 1.1547223 4284960007
-0.43464634 0.674555 1.1554099 4284960007
-0.42580119 0.67578393 1.1585178 4284960007
-0.41541716 0.67697614 1.1590536 4284960007
-0.40522289 0.67697614 1.1590536 4284960007
-0.39502856 0.6769762 1.1590536 4284960007
-0.37166673 0.67659348 1.1592379 4284960007
-0.36444572 0.67697626 1.1590536 4284960007
-0.35425144 0.67697626 1.1590536 4284960007
-0.34278286 0.67582816 1.1596065 4284960007
-0.33386284 0.6758281 1.1596065 4284960007
-0.32494289 0.67582816 1.1596065 4284960007
-0.31984574 0.6758281 1.1596065 4284960007
-0.50323176 0.68601018 1.153694 4284960007
-0.49558175 0.68459255 1.1534038 4284960007
-0.48358408 0.68383759 1.1535295 4284960007
-0.4739261 0.68538982 1.1552938 4284960007
-0.46412319 0.68552321 1.1549376 4284960007
-0.45531207 0.68448305 1.1554385 4284960007
-0.44423255 0.68324989 1.1527026 4284960007
-0.43422347 0.68422657 1.1538544 4284960007
-0.42553321 0.68548912 1.1557465 4284960007
-0.41547185 0.68414891 1.1567093 4284960007
-0.4050217 0.6847713 1.1552997 4284960007
-0.39502856 0.685013 1.1551832 4284960007
-0.38621461 0.6882531 1.1573225 4284960007
-0.37604004 0.68872511 1.1589451 4284960007
-0.36553523 0.68706417 1.1586351 4284960007
-0.35557526 0.68872511 1.1589451 4284960007
-0.34534287 0.68872511 1.1589451 4284960007
-0.33511049 0.68872511 1.1589451 4284960007
-0.32542628 0.68856055 1.1590245 4284960007
-0.31464571 0.68757272 1.1595 4284960007
-0.30441338 0.68757272 1.1595 4284960007
-0.29503366 0.68834102 1.1591301 4284960007
-0.2839486 0.68872511 1.1589451 4284960007
-0.49496901 0.69321352 1.1512341 4284960007
-0.48178419 0.69425893 1.1518406 4284960007
-0.47502688 0.69493455 1.1524234 4284960007
-0.4640573 0.69337374 1.1518506 4284960007
-0.45467347 0.69395471 1.1524627 4284960007
-0.44540569 0.69592988 1.1536257 4284960007
-0.4351202 0.69514412 1.1523225 4284960007
-0.42449883 0.69512248 1.1532747 4284960007
-0.41441146 0.69563937 1.1556152 4284960007
-0.40417907 0.69679177 1.1550605 4284960007
-0.39442173 0.69650424 1.154089 4284960007
-0.38551676 0.69526941 1.1550009 4284960007
-0.37604001 0.69563949 1.1556153 4284960007
-0.36635581 0.69531024 1.155774 4284960007
-0.35506365 0.69402599 1.1563922 4284960007
-0.34790096 0.69333458 1.1567252 4284960007
-0.29673904 0.69218218 1.1572802 4284960007
-0.48322421 0.70416701 1.1515087 4284960007
-0.4765732 0.70393652 1.1516197 4284960007
-0.46941048 0.70601082 1.1506207 4284960007
-0.44510859 0.70370603 1.1517307 4284960007
-0.43453151 0.70394784 1.1521264 4284960007
-0.42429504 0.70370609 1.1517307 4284960007
-0.41441149 0.70370603 1.1517307 4284960007
-0.40432811 0.70396888 1.152159 4284960007
-0.39394671 0.70370603 1.1517305 4284960007
-0.38465142 0.70425195 1.1521338 4284960007
-0.37510818 0.70489097 1.1540141 4284960007
-0.36450538 0.7061885 1.1571947 4284960007
-0.35459432 0.70569247 1.1574334 4284960007
-0.34513378 0.70453495 1.1579907 4284960007
-0.33789238 0.70337731 1.1585484 4284960007
-0.48435524 0.71611017 1.1524166 4284960007
-0.47818843 0.71657318 1.1521937 4284960007
-0.45206258 0.71749091 1.1554515 4284960007
-0.44407558 0.71496922 1.1549841 4284960007
-0.43415073 0.71575403 1.152588 4284960007
-0.42452207 0.71710235 1.1519389 4284960007
-0.41754764 0.71726769 1.1518592 4284960007
-0.40341529 0.71611017 1.1524167 4284960007
-0.39541018 0.71521974 1.1528453 4284960007
-0.38544419 0.71513969 1.1535777 4284960007
-0.37475428 0.7146799 1.1549551 4284960007
-0.36595148 0.71544778 1.1571753 4284960007
-0.35519975 0.71551031 1.1567415 4284960007
-0.34535789 0.71598977 1.1575199 4284960007
-0.33850002 0.71585983 1.1580868 4284960007
-0.31077525 0.71411711 1.158926 4284960007
-0.30819622 0.71411711 1.158926 4284960007
-0.48267382 0.72323775 1.151759 4284960007
-0.47688764 0.72381872 1.1514792 4284960007
-0.46809718 0.72689712 1.1527715 4284960007
-0.45238847 0.72489029 1.153738 4284960007
-0.44574541 0.72444433 1.1539527 4284960007
-0.43465552 0.72140813 1.1512527 4284960007
-0.42393717 0.72450387 1.1528141 4284960007
-0.41529959 0.72546083 1.1524541 4284960007
-0.40526864 0.72484487 1.1519101 4284960007
-0.3950412 0.72504652 1.1532664 4284960007
-0.38376233 0.72387636 1.1542262 4284960007
-0.37453455 0.724527 1.1562253 4284960007
-0.3648755 0.72586119 1.1583576 4284960007
-0.35416025 0.7250303 1.1556526 4284960007
-0.34451833 0.72605306 1.1582232 4284960007
-0.33432719 0.72569889 1.1584712 4284960007
-0.32486573 0.7260831 1.158713 4284960007
-0.31580573 0.72608316 1.1587131 4284960007
-0.30545145 0.72608298 1.1587132 4284960007
-0.29509714 0.72608304 1.1587132 4284960007
-0.28862572 0.72608304 1.1587131 4284960007
-0.48099241 0.73038256 1.151093 4284960007
-0.47841337 0.73038256 1.151093 4284960007
-0.46809718 0.73038256 1.151093 4284960007
-0.45262289 0.73038262 1.151093 4284960007
-0.44617528 0.73038256 1.151093 4284960007
-0.43456957 0.73038262 1.151093 4284960007
-0.42381269 0.73320442 1.1521125 4284960007
-0.41449663 0.73421317 1.1523312 4284960007
-0.4049966 0.73353761 1.151952 4284960007
-0.39556575 0.73451298 1.1528037 4284960007
-0.38569713 0.73424584 1.1547821 4284960007
-0.37534285 0.73424584 1.1547822 4284960007
-0.36498863 0.73424584 1.1547822 4284960007
-0.35426453 0.73474574 1.1545415 4284960007
-0.34428003 0.7342459 1.1547821 4284960007
-0.33422443 0.73343867 1.155171 4284960007
-0.32448918 0.73363775 1.1557411 4284960007
-0.31480572 0.73437852 1.1573819 4284960007
-0.30489674 0.73391271 1.1549428 4284960007
-0.29549474 0.73368835 1.155563 4284960007
-0.28652513 0.73707652 1.1587466 4284960007
-0.27560002 0.73865879 1.1593164 4284960007
-0.2665 0.73865879 1.1593164 4284960007
-0.44652861 0.74240863 1.1508511 4284960007
-0.4361743 0.74240863 1.1508511 4284960007
-0.4236629 0.74163127 1.1512256 4284960007
-0.41417146 0.74124259 1.1514127 4284960007
-0.40511143 0.74124259 1.1514127 4284960007
-0.39605144 0.74124259 1.1514126 4284960007
-0.38569716 0.74124259 1.1514127 4284960007
-0.37479052 0.74412793 1.1539078 4284960007
-0.36442316 0.74390233 1.1531588 4284960007
-0.35437492 0.74199659 1.1517895 4284960007
-0.34503716 0.74405015 1.1533904 4284960007
-0.33513999 0.74474925 1.1563834 4284960007
-0.32500002 0.74451506 1.1564962 4284960007
-0.31459999 0.74451506 1.156496 4284960007
-0.30375051 0.74459553 1.1542377 4284960007
-0.29535997 0.74381238 1.1568346 4284960007
-0.28729999 0.74275815 1.1573422 4284960007
-0.27950001 0.74100131 1.1581883 4284960007
-0.26520002 0.74100131 1.1581883 4284960007
-0.45370001 0.75739896 1.1502917 4284960007
-0.44156668 0.75661814 1.1506677 4284960007
-0.43475714 0.7563951 1.1507752 4284960007
-0.4251 0.75681341 1.1505737 4284960007
-0.41470003 0.75564206 1.1511377 4284960007
-0.4059546 0.75526941 1.1513171 4284960007
-0.39519998 0.75622773 1.1508557 4284960007
-0.38410002 0.75451589 1.15168 4284960007
-0.37440002 0.75388515 1.1519836 4284960007
-0.36399999 0.75388509 1.1519836 4284960007
-0.3549 0.75388515 1.1519837 4284960007
-0.34579998 0.75388509 1.1519837 4284960007
-0.33585888 0.75358075 1.1525267 4284960007
-0.3253969 0.75363445 1.1539545 4284960007
-0.31498176 0.75363505 1.1539543 4284960007
-0.30512702 0.75501293 1.1560655 4284960007
-0.29546928 0.75376123 1.1575931 4284960007
-0.28443813 0.75311995 1.1579018 4284960007
-0.27373907 0.75406045 1.157449 4284960007
-0.26486671 0.75312001 1.1579019 4284960007
-0.3431524 0.76605117 1.1516746 4284960007
-0.33438337 0.76394963 1.1543514 4284960007
-0.32520321 0.76326877 1.1544944 4284960007
-0.31511149 0.76340944 1.1543739 4284960007
-0.30445847 0.76475424 1.1567388 4284960007
-0.29512078 0.7649619 1.1575266 4284960007
-0.28568381 0.76586384 1.1584241 4284960007
-0.27598628 0.7656278 1.1585379 4284960007
-0.26602668 0.76350254 1.1595614 4284960007
-0.36038098 0.77767092 1.1527383 4284960007
-0.35513911 0.77767098 1.1527383 4284960007
-0.34290797 0.77688378 1.1531174 4284960007
-0.33492029 0.77446622 1.1542816 4284960007
-0.32491073 0.77389282 1.1545578 4284960007
-0.31458482 0.77430493 1.1547061 4284960007
-0.30450508 0.77374423 1.1554831 4284960007
-0.29497725 0.77326119 1.1554785 4284960007
-0.28511271 0.77412188 1.1564293 4284960007
-0.27542669 0.77482349 1.1578091 4284960007
-0.26830858 0.77694178 1.158639 4284960007
-0.36169145 0.78121299 1.1510326 4284960007
-0.35513285 0.78340387 1.1513648 4284960007
-0.34461856 0.78470236 1.1523118 4284960007
-0.33442336 0.78571296 1.1530274 4284960007
-0.3253113 0.78472859 1.1531817 4284960007
-0.31489527 0.78413415 1.1514757 4284960007
-0.30486867 0.78533697 1.154304 4284960007
-0.29461333 0.78523666 1.1546444 4284960007
-0.28409144 0.78523678 1.1546444 4284960007
-0.27488476 0.78523678 1.1546445 4284960007
-0.2670534 0.78602403 1.155802 4284960007
-0.25494385 0.78864831 1.1596611 4284960007
-0.24569714 0.78864831 1.1596609 4284960007
-0.23512954 0.78864831 1.1596609 4284960007
-0.20474765 0.78864831 1.1596611 4284960007
-0.19550095 0.78864831 1.1596609 4284960007
-0.18757525 0.78864831 1.1596609 4284960007
-0.15587239 0.78864831 1.1596609 4284960007
-0.14662573 0.78864831 1.1596611 4284960007
-0.36507255 0.79370093 1.150568 4284960007
-0.35567799 0.79370093 1.150568 4284960007
-0.34402877 0.79370093 1.1505682 4284960007
-0.33407047 0.79353166 1.1506495 4284960007
-0.32486382 0.79353166 1.1506495 4284960007
-0.31565714 0.79353166 1.1506495 4284960007
-0.30513525 0.79353166 1.1506495 4284960007
-0.29524758 0.79525554 1.1531494 4284960007
-0.28502142 0.79611742 1.1543992 4284960007
-0.27488476 0.7935316 1.1506495 4284960007
-0.26461229 0.79378402 1.1552852 4284960007
-0.25494382 0.79340893 1.1573685 4284960007
-0.24569714 0.79340887 1.1573687 4284960007
-0.23645048 0.79281378 1.1576551 4284960007
-0.20474765 0.79102868 1.1585147 4284960007
-0.19462034 0.79182208 1.1581328 4284960007
-0.18889621 0.79221874 1.1579416 4284960007
-0.15587237 0.79102862 1.1585147 4284960007
-0.14662573 0.79102868 1.1585147 4284960007
-0.34424022 0.80673838 1.1509494 4284960007
-0.33750334 0.80709541 1.1507773 4284960007
-0.31042382 0.8076905 1.1504908 4284960007
-0.3058005 0.80709541 1.1507773 4284960007
-0.29457238 0.80487746 1.1518455 4284960007
-0.28532571 0.80412006 1.15221 4284960007
-0.2747581 0.80463016 1.1519647 4284960007
-0.26466191 0.80437505 1.1548619 4284960007
-0.25453717 0.80463004 1.1575141 4284960007
-0.24525714 0.80463004 1.1575143 4284960007
-0.23597713 0.80462992 1.1575143 4284960007
-0.22537147 0.80462992 1.1575141 4284960007
-0.21476571 0.80462998 1.1575142 4284960007
-0.20416002 0.80462998 1.1575141 4284960007
-0.19488001 0.80463004 1.1575143 4284960007
-0.18560001 0.80463004 1.1575141 4284960007
-0.17632 0.80283844 1.1583771 4284960007
-0.16438857 0.80184311 1.1588563 4284960007
-0.154048 0.80248016 1.1585495 4284960007
-0.1471543 0.80224127 1.1586646 4284960007
-0.12064 0.80104673 1.1592398 4284960007
-0.11344328 0.80207068 1.1587467 4284960007
-0.10473143 0.80224127 1.1586645 4284960007
-0.095451437 0.80224127 1.1586646 4284960007
-0.085641146 0.80152458 1.1590097 4284960007
-0.074681908 0.80104673 1.1592398 4284960007
-0.064429723 0.80200225 1.1587795 4284960007
-0.055238094 0.80290484 1.1583451 4284960007
-0.045074292 0.80224121 1.1586646 4284960007
-0.035794292 0.80463004 1.1575142 4284960007
-0.30889145 0.81776869 1.1511868 4284960007
-0.27972573 0.81776869 1.1511868 4284960007
-0.26249146 0.8141855 1.1529124 4284960007
-0.25453717 0.8141855 1.1529125 4284960007
-0.24525714 0.8141855 1.1529126 4284960007
-0.23597716 0.81418556 1.1529125 4284960007
-0.22537145 0.81418556 1.1529124 4284960007
-0.21521258 0.81464756 1.1540219 4284960007
-0.2048962 0.81591219 1.1576304 4284960007
-0.19488001 0.8141855 1.1529126 4284960007
-0.18573144 0.81357688 1.1543157 4284960007
-0.17628117 0.81601542 1.1586907 4284960007
-0.16509716 0.81601542 1.1586907 4284960007
-0.15524457 0.81457597 1.1593839 4284960007
-0.14778858 0.81409615 1.1596149 4284960007
-0.11450288 0.81409615 1.1596149 4284960007
-0.10784572 0.81409615 1.1596149 4284960007
-0.095330298 0.81601542 1.1586906 4284960007
-0.086542867 0.81649524 1.1584595 4284960007
-0.062577151 0.81409615 1.1596149 4284960007
-0.055920005 0.81489587 1.1592299 4284960007
-0.045268577 0.81529576 1.1590372 4284960007
-0.03502794 0.81518579 1.1576104 4284960007
-0.027960001 0.81409615 1.1596149 4284960007
0.0093200011 0.8152957 1.1590372 4284960007
0.011982857 0.8152957 1.1590372 4284960007
0.023965716 0.81409615 1.1596149 4284960007
0.035504766 0.81489587 1.1592299 4284960007
0.044469722 0.81457597 1.1593839 4284960007
0.051925715 0.81409615 1.1596149 4284960007
0.10385144 0.81409615 1.1596149 4292827821
0.18506859 0.81409615 1.1596149 4292827821
-0.31154287 0.82015759 1.1500365 4284960007
-0.30889145 0.82015759 1.1500365 4284960007
-0.29828572 0.82015759 1.1500365 4284960007
-0.27972573 0.82015759 1.1500365 4284960007
-0.265021 0.8249135 1.1521858 4284960007
-0.25461376 0.82514495 1.1529622 4284960007
-0.24515483 0.82566732 1.1528319 4284960007
-0.23556885 0.8257705 1.1533874 4284960007
-0.22569524 0.82293546 1.1509186 4284960007
-0.21404953 0.82411385 1.152571 4284960007
