# .PCD v0.7 - Point Cloud Data file format
VERSION 0.7
FIELDS x y z rgb
SIZE 4 4 4 4
TYPE F F F U
COUNT 1 1 1 1
WIDTH 241
HEIGHT 1
VIEWPOINT 0 0 0 1 0 0 0
POINTS 241
DATA ascii
0.11618286 1.1764816 1.1693455 7626587
0.13033335 1.1778238 1.1686993 7627092
0.14628571 1.0499802 1.1991875 8414805
0.1577508 1.0448865 1.1990507 8480600
0.086701915 1.0653574 1.1995518 8415574
0.10509545 1.0699251 1.1973523 8349785
0.13694209 1.0675795 1.1963545 8349786
0.15793368 1.0669868 1.1966952 8349785
-0.12752572 1.0990716 1.1988547 8086352
-0.09193714 1.0990716 1.1988547 8347986
-0.065245718 1.1010756 1.1978896 8020560
-0.046700913 1.096611 1.1969318 8020560
0.05078892 1.0947081 1.1983663 8086868
0.075134188 1.0959746 1.1977563 8086869
0.10370846 1.0962392 1.1930869 8152920
0.13622962 1.0934237 1.1901979 8152663
0.16226974 1.0957048 1.1927066 8284251
-0.1897094 1.1311029 1.1960824 7363146
-0.16339827 1.1266446 1.1959538 7560266
-0.13569281 1.1278646 1.1954219 7626064
-0.10593288 1.1262882 1.195585 7691854
-0.07421954 1.1259414 1.1948683 7823440
-0.044821743 1.1277615 1.1940974 7823442
-0.012001769 1.1272465 1.1968613 7888977
0.015155103 1.1292338 1.1948735 7823442
0.045620058 1.1284986 1.1924529 7823700
0.07515195 1.1264066 1.1913089 7889492
0.10465212 1.1259047 1.1838582 7955540
0.13569295 1.1264002 1.1817012 7955541
0.16566321 1.1269467 1.1853112 8218972
-0.19695619 1.1539184 1.1874243 6113339
-0.16469182 1.1537272 1.1891826 7363146
-0.135493 1.1520394 1.188727 7494475
-0.10483564 1.1539 1.1890994 7560525
-0.074907057 1.1538806 1.1891087 7626318
-0.04316796 1.1538039 1.1891282 7626576
-0.015761321 1.1569542 1.191466 7626319
0.014088619 1.1556967 1.1906589 7692112
0.046256181 1.1536971 1.1886749 7692370
0.074105613 1.154518 1.1874141 7692370
0.10398924 1.155951 1.1784927 7758162
0.1351074 1.1548733 1.1794046 7758419
0.16407067 1.15622 1.1806569 8021592
-0.15522584 1.176955 1.1846565 7494473
-0.13227519 1.1746724 1.1809089 7494475
-0.10479999 1.1717083 1.1805234 7494989
-0.074857146 1.1717083 1.1805234 7626320
-0.045123916 1.1745106 1.1800371 7560784
-0.015038095 1.1755712 1.1864327 7626574
0.015168804 1.175763 1.1859087 7561040
0.047331739 1.1760753 1.1808993 7561296
0.074857146 1.1744061 1.1792241 7626320
0.10260572 1.1742162 1.1778358 7626833
0.13821518 1.1734848 1.1768773 7692882
0.1599825 0.91937339 1.2287871 9597541
-0.044964768 0.95745629 1.229316 9202780
0.075908266 0.95745629 1.229316 9334883
0.10808334 0.95258737 1.2284234 9269345
0.13494034 0.94955826 1.2280694 9334881
0.16179267 0.94550323 1.2279688 9400674
0.18783668 0.95745629 1.229316 6442304
-0.13505654 0.98818535 1.2289463 8940118
-0.098011427 0.98671669 1.2296536 9071453
-0.075337142 0.98737574 1.2293363 9071704
-0.045224447 0.97788084 1.2277777 9136986
-0.0087771425 0.98737574 1.2293363 9005912
0.014338868 0.98469508 1.2286849 8940121
0.047671236 0.98225963 1.2274492 9005914
0.075037345 0.97463119 1.2263477 9071965
0.10611475 0.97554976 1.2221441 9138015
0.13620996 0.97503972 1.2224289 9072222
0.1639529 0.97601074 1.2222213 9203297
0.18614557 0.97159249 1.2247281 8020822
-0.1866833 1.0141517 1.2271709 8677975
-0.16462342 1.0109301 1.2257627 8743254
-0.13477503 1.0051513 1.2259557 8874584
-0.10311707 1.0112953 1.2244768 8874327
-0.075341456 1.008834 1.2232405 8940121
-0.045211196 1.005872 1.2256087 8940119
-0.012925404 1.0083591 1.2260494 8874073
0.014743541 1.0055603 1.2255671 8940376
0.046508685 1.0058403 1.2243011 8874586
0.074126579 1.0049618 1.2203679 8874842
0.10409844 1.0011241 1.2181286 8940638
0.13488518 1.0036979 1.2155272 8874843
0.16602148 1.0048119 1.2137978 8940637
0.18487656 1.003544 1.2145576 8876133
-0.19556133 1.0350816 1.2219013 6508355
-0.16374987 1.0340769 1.2211897 8546133
-0.13367282 1.0336665 1.2217977 8611669
-0.10522069 1.0334158 1.2202581 8677206
-0.074133486 1.0356565 1.2133429 8676950
-0.045108315 1.0340077 1.2148564 8677207
-0.014430624 1.0322878 1.2194526 8676950
0.014592775 1.0333084 1.2174138 8545879
0.044693641 1.0342792 1.215368 8546391
0.074749783 1.0338817 1.2147099 8611930
0.10396028 1.0347662 1.2137827 8743516
0.13471954 1.0346987 1.2096546 8612186
0.16703823 1.0340363 1.2087792 8678235
0.18843825 1.0326815 1.2088132 6048317
-0.21002287 1.0664365 1.2223405 724506
-0.19579904 1.0658801 1.2206788 6771269
-0.16456024 1.0687181 1.2121001 8283218
-0.13685493 1.0668824 1.2102324 8348754
-0.10457782 1.0668119 1.209182 8348500
-0.073572204 1.0635858 1.2069507 8479828
-0.045206666 1.0653893 1.2088163 8414294
-0.01368104 1.067806 1.2105815 8348758
0.013496051 1.0657961 1.208612 8283477
0.044502169 1.0634754 1.2051846 8218199
0.074929178 1.0644357 1.2042042 8349272
0.10366015 1.0625319 1.2039069 8480858
0.13473086 1.0582298 1.2029843 8415066
0.1690152 1.0635008 1.2056661 8546909
0.18415478 1.0688604 1.2056342 7167052
-0.19476248 1.0932091 1.2092994 7166027
-0.16451401 1.0925784 1.2074972 7954769
-0.13651849 1.0932881 1.2067655 7954766
-0.10491005 1.0947638 1.206057 8020304
-0.076487154 1.0932943 1.2042267 8151890
-0.041743282 1.0934747 1.2044275 8086353
-0.016599629 1.0950021 1.2088653 8152147
0.015857326 1.0958389 1.2053784 8021075
0.041802961 1.0987207 1.2037101 8086615
0.07149262 1.0988655 1.2008963 8087125
0.090454288 1.0963995 1.2001414 8283990
0.17571858 1.0903876 1.2030368 8482138
-0.19452126 1.1241107 1.2027467 7231820
-0.16490768 1.1238116 1.2016162 7560521
-0.13431852 1.1235259 1.2007672 7691855
-0.10752509 1.1212039 1.2004055 7822930
-0.074476197 1.1120651 1.200367 7888976
-0.039764114 1.1187457 1.2017667 7888977
-0.016665483 1.1216674 1.2037833 7955027
0.014132506 1.1226566 1.2030355 7955028
0.041764148 1.1154846 1.2027158 8021078
0.067028582 1.1120651 1.200367 8086614
-0.19323954 1.1453121 1.2010047 6508095
0.13545787 0.83512425 1.2508684 8148546
0.15693589 0.83599836 1.2500697 7753793
-0.067545719 0.86513901 1.2582347 9859425
-0.045030478 0.86578649 1.257923 9793117
0.044574246 0.86632085 1.2576656 9662557
0.074731193 0.86532235 1.2553716 9794148
0.10579196 0.85556388 1.2539319 8676438
0.13457362 0.85411304 1.2492268 9532259
0.16299191 0.85472924 1.2517961 8086104
-0.16280748 0.88718134 1.2592739 9399647
-0.13548073 0.88687313 1.2581813 9530974
-0.10392819 0.88609409 1.25574 9530716
-0.074991688 0.88770622 1.2542946 9596765
-0.044076912 0.88708961 1.252895 9662303
-0.014398254 0.88593835 1.2584815 9727324
0.014569418 0.88935679 1.2544198 9793891
0.044097207 0.88738793 1.2527885 9728613
0.076421954 0.88636506 1.2519766 9794405
0.10443717 0.88379616 1.249799 9794660
0.13486923 0.88546175 1.2454879 9729123
0.16622619 0.88553661 1.2475506 9729123
0.18971281 0.88718158 1.2467872 8809568
-0.19039381 0.92033798 1.2577354 8348244
-0.16488832 0.91957825 1.2543603 9399899
-0.1345946 0.91919374 1.2542881 9400155
-0.10475305 0.91881293 1.2530913 9465436
-0.074986637 0.91624987 1.251574 9530717
-0.044391997 0.91422248 1.2494082 9662047
-0.013521312 0.91562498 1.2499732 9464924
0.015983259 0.91405827 1.2471029 9531230
0.0432017 0.91413295 1.2456155 9663075
0.074331015 0.91619456 1.2420895 9597539
0.10538697 0.9150238 1.2413833 9663332
0.13578127 0.91450465 1.2399119 9597794
0.16543755 0.91368353 1.2382743 9597796
0.18930247 0.91249138 1.240281 7823441
-0.21014191 0.95943767 1.25056 2302255
-0.19452961 0.9465875 1.2513028 7099979
-0.16514547 0.9433623 1.2486229 9203033
-0.1338827 0.94394165 1.2467999 9268826
-0.10627387 0.9436087 1.2486867 9268570
-0.073637709 0.94298375 1.2484399 9399900
-0.043795288 0.9451586 1.2398044 9268316
-0.012713498 0.94386512 1.24038 9070937
0.01452878 0.94260222 1.2390306 9071452
0.045005951 0.94248486 1.2379131 9334623
0.075463988 0.94259024 1.2366601 9334880
0.10348256 0.94326496 1.2354439 9466466
0.13485827 0.94543773 1.2326866 9400675
0.16652721 0.94493735 1.2329168 9400674
0.18937157 0.94490391 1.2339271 7362380
-0.21109524 0.98307526 1.2469461 2499621
-0.196171 0.97689497 1.2455162 6639683
-0.16362363 0.9747411 1.2404866 9006169
-0.13418716 0.97362596 1.2391822 9071702
-0.1058199 0.97238266 1.237951 9071448
-0.07511963 0.97190124 1.2373818 9202779
-0.043579515 0.973665 1.2338732 9136985
-0.015588983 0.97169304 1.2376854 9136987
0.014335735 0.97357225 1.2354658 9071707
0.042139236 0.97251111 1.2338587 9071965
0.078244068 0.97218651 1.2314714 9137760
0.16746192 0.96516418 1.2322633 9400673
-0.21109526 0.99305028 1.2421424 2433310
-0.19751446 1.0042793 1.2375118 6178879
-0.16458668 0.99849558 1.2317508 8809048
-0.13521253 0.99878979 1.2316091 8874327
-0.10393269 1.0023323 1.2318454 8874328
-0.075365581 0.99859017 1.2317053 9005656
-0.039677147 0.99959892 1.2312194 8940375
-0.01533551 1.0013267 1.2314972 8874072
0.014695239 1.0018055 1.2301568 8874586
0.036738094 1.0018055 1.2301568 8940634
-0.20265715 1.028857 1.2326683 5456184
-0.14976858 1.0309352 1.2316674 8743249
-0.13509142 0.83600557 1.2722647 7031358
-0.04427886 0.8360346 1.2655911 6898736
-0.02462057 0.8360346 1.2655911 7555389
-0.16454917 0.85951793 1.2687111 8741716
-0.13778999 0.85645026 1.2694113 8742491
-0.1053981 0.8659001 1.2656375 9727581
-0.075311281 0.86410242 1.2639135 9924701
-0.040966351 0.85414004 1.2639632 9662561
-0.024502262 0.85597026 1.267506 8807512
0.014337151 0.86627263 1.2651703 9859171
0.058922861 0.86060715 1.2604171 10451544
0.087665714 0.8593123 1.2610407 11240824
0.093978845 0.85560971 1.2614672 9004642
0.1738724 0.85233772 1.2610698 9333086
-0.19017081 0.88502979 1.2686342 8808275
-0.16542786 0.88496691 1.2626177 9399388
-0.135243 0.88461643 1.2627536 9596763
-0.1099442 0.8799367 1.2619858 9530972
-0.080492377 0.87337989 1.2620354 9596508
-0.038548257 0.88027525 1.2613047 9727584
-0.015930239 0.88455766 1.2615086 9662044
0.014438095 0.87370509 1.2618788 9727582
0.03032 0.87500596 1.2612524 9662556
-0.19525237 0.91431063 1.2645226 7493709
-0.16522908 0.90367597 1.2618746 9399900
-0.13397995 0.91393483 1.2608187 9465434
-0.11529572 0.9134711 1.2610421 9465694
