# .PCD v0.7 - Point Cloud Data file format
VERSION 0.7
FIELDS x y z rgb
SIZE 4 4 4 4
TYPE F F F U
COUNT 1 1 1 1
WIDTH 322
HEIGHT 1
VIEWPOINT 0 0 0 1 0 0 0
POINTS 322
DATA ascii
-0.49985501 0.71382093 1.1385353 1184539
-0.49547005 0.73368621 1.1366825 2958629
-0.49883413 0.76676762 1.1370065 2827301
-0.49388966 0.79342854 1.1373632 3945269
-0.46560657 0.79401726 1.1385767 5589060
-0.43482631 0.7949571 1.1390227 5655109
-0.40553245 0.79146534 1.1394358 5786441
-0.49422434 0.82462561 1.1360213 4076851
-0.46526957 0.82503635 1.1374131 5457731
-0.43553817 0.82694548 1.1348209 5589061
-0.40577424 0.82466775 1.1378752 5654599
-0.37828478 0.82703638 1.1378446 5786183
-0.35665715 0.83744395 1.1361623 5720386
-0.51040006 0.85300434 1.1342182 790036
-0.49450371 0.85455984 1.1330408 3879985
-0.46556136 0.85628247 1.130259 5194559
-0.43479806 0.85634017 1.1307346 5325631
-0.406831 0.85554367 1.132916 5391424
-0.37582314 0.85705948 1.1345844 5523008
-0.34605086 0.85727781 1.1367446 5654339
-0.32779774 0.85680103 1.1390494 5655110
-0.28591242 0.84165734 1.1396828 6049353
-0.4944379 0.88783318 1.1320273 4142642
-0.46468082 0.88532478 1.1302681 4931901
-0.43531835 0.88502514 1.1308796 4997178
-0.40466559 0.88245606 1.1323072 5127996
-0.37437716 0.88631809 1.1317797 5259583
-0.34673113 0.8852973 1.1347543 5390914
-0.31514958 0.88469243 1.1372443 5523011
-0.28486639 0.88463062 1.1374762 5654341
-0.49581775 0.91378617 1.125863 3616560
-0.46515891 0.91136056 1.1273177 4734263
-0.43553945 0.9137165 1.1286714 4799800
-0.40429279 0.91152519 1.1275417 4930873
-0.37341067 0.9130798 1.1287533 5061947
-0.34592375 0.91521406 1.1302466 5128251
-0.31604522 0.91591662 1.1314915 5325117
-0.28507295 0.91478986 1.1353171 5456706
-0.25808859 0.91198385 1.1396677 5588032
-0.23818669 0.90796429 1.1399386 5588799
-0.46761075 0.94572991 1.1218803 4537142
-0.43542841 0.9450404 1.1256361 4668215
-0.4068743 0.9457134 1.1232126 4865335
-0.37210169 0.94432265 1.126883 4996409
-0.34484041 0.94509262 1.1296942 5127739
-0.31462586 0.94428098 1.1291593 5193533
-0.28610799 0.94756854 1.1317995 5390912
-0.25526938 0.94493461 1.1376733 5522242
-0.22792777 0.94614685 1.1377239 5521985
-0.19072671 0.94895631 1.1375124 5654084
-0.16516322 0.94441956 1.1379215 5785669
-0.1344894 0.95466727 1.1374259 5785668
-0.1000068 0.94819736 1.1378781 5851721
-0.075318314 0.94396335 1.1381412 5983306
-0.051803999 0.95268047 1.1383828 5917768
0.035632379 0.95156914 1.1389179 6114890
-0.3167313 0.97215146 1.1230618 5194046
-0.28283545 0.9704178 1.1281762 5325376
-0.25523573 0.97143322 1.1315718 5390910
-0.22458759 0.9725312 1.1314869 5587778
-0.19616847 0.96893096 1.1354407 5653568
-0.16468529 0.96965075 1.136315 5719878
-0.13503286 0.96883184 1.1367648 5654339
-0.1034973 0.97186631 1.1348838 5785929
-0.075780652 0.97408473 1.134238 5851721
-0.045698609 0.97428662 1.1366038 5851719
-0.017716667 0.97778893 1.1387777 5851465
0.015886204 0.97458333 1.1370842 5851721
0.045174886 0.97409165 1.1374829 5851720
0.066035956 0.97739702 1.1367005 5786707
-0.40496486 0.65203059 1.1578702 6640464
-0.37864849 0.65563643 1.1648641 6837329
-0.34715259 0.65365815 1.1655736 7692382
-0.30837715 0.65745866 1.1684527 7034194
-0.28034288 0.65745866 1.1684526 7231318
-0.26122862 0.65745866 1.1684527 7362643
-0.46277905 0.67263931 1.156056 5325890
-0.43669453 0.67578125 1.1563233 4668217
-0.40329832 0.67425811 1.1594675 5522496
-0.3742778 0.6775158 1.1611193 6508877
-0.3445636 0.67744744 1.1610875 6771278
-0.31668937 0.67647678 1.1615698 6902864
-0.28527352 0.67760521 1.1643369 6968658
-0.26180097 0.67373115 1.1664505 7099989
-0.49187818 0.70396221 1.1477565 4470839
-0.46542251 0.70465773 1.1499214 4865854
-0.43528184 0.70532411 1.1513293 3419185
-0.40552872 0.70703399 1.1515154 4536120
-0.37406304 0.70467228 1.1555662 6508877
-0.34450486 0.70589364 1.1592122 6640206
-0.3139888 0.70744109 1.161817 6837327
-0.2860584 0.70421922 1.1632586 6903123
-0.25858989 0.70721763 1.1676832 7034707
-0.22507334 0.71866935 1.1689428 7165782
-0.20085001 0.71874744 1.1689053 7297111
-0.1014 0.71757615 1.1694692 7428438
0.067302868 0.70276088 1.1699445 7296852
-0.49073744 0.73415601 1.1468992 4866111
-0.46532783 0.73241276 1.1489186 5852234
-0.43495205 0.73400062 1.1500179 5786952
-0.40585655 0.73616731 1.1511075 6114892
-0.37509561 0.73491573 1.1542647 6377550
-0.34475413 0.73313218 1.1558377 6509135
-0.31567055 0.7321924 1.1582288 6706001
-0.28514129 0.73492801 1.1599338 6772050
-0.2569482 0.73634505 1.1642337 6968914
-0.22477007 0.73560989 1.1676641 7100244
-0.19497238 0.73646408 1.1673824 7231574
-0.16644028 0.7362175 1.168539 7362646
-0.13252495 0.73778391 1.1692832 7362647
-0.10824843 0.73422974 1.1689017 7297108
-0.075109713 0.73543614 1.1686378 7297366
-0.047135398 0.73386687 1.1688386 7362905
0.022502096 0.73874474 1.1692644 7428694
0.046168778 0.73556012 1.1688557 7428439
0.065061912 0.73887867 1.16809 7428952
-0.4882029 0.7652207 1.1432931 5523529
-0.46423826 0.76448846 1.1445698 5786697
-0.43449709 0.7634697 1.1467837 5918027
-0.40524551 0.76385623 1.1476752 6049355
-0.37349841 0.76471847 1.1485597 6246223
-0.34580985 0.76567531 1.1509736 6377807
-0.31491992 0.76396185 1.1549255 6574927
-0.28476274 0.7641257 1.1587836 6640721
-0.2574434 0.76515627 1.1630851 6837587
-0.22477531 0.76590836 1.1670483 6968916
-0.194763 0.76579189 1.1668606 7100245
-0.16560258 0.76629281 1.1681298 7231316
-0.13391373 0.76953238 1.168267 7165779
-0.1048259 0.76601678 1.1675719 7166038
-0.076078713 0.76793945 1.1678023 7166038
-0.044787809 0.7660799 1.1687126 7166037
-0.01476863 0.77287275 1.1693853 7166039
0.01671862 0.77129841 1.1694961 7231574
0.044877481 0.76711321 1.1688249 7231574
0.069104657 0.7658537 1.1669309 6706516
-0.49384138 0.79487574 1.1425502 4865588
-0.46513632 0.79639608 1.1417065 5589316
-0.4355801 0.79541117 1.1424565 5720647
-0.40494114 0.79582077 1.1434335 5852232
-0.372888 0.79442161 1.1466457 6049100
-0.34516928 0.79541266 1.1493739 6180428
-0.31461558 0.79528254 1.1495891 6312268
-0.28606433 0.79595232 1.1518425 6377805
-0.2550762 0.79243511 1.158408 6640464
-0.22682786 0.7941429 1.1602101 6706258
-0.19534056 0.79318428 1.1596965 6837330
-0.16370504 0.79657936 1.1610564 6902865
-0.13668518 0.79590821 1.1620363 6968401
-0.10484355 0.79802161 1.1620532 6968915
-0.074742869 0.79731822 1.1616673 6968916
-0.044997305 0.79796678 1.1624373 6968917
-0.015546327 0.79570723 1.1662508 6968916
0.015511112 0.79555142 1.1663259 7034451
0.045132533 0.79545057 1.1650178 7034196
0.068231098 0.79665715 1.1640478 6443603
-0.48953164 0.8132025 1.1411768 5063994
-0.46480653 0.82038325 1.1410484 5523523
-0.4313949 0.81670606 1.1411544 5589317
-0.40500465 0.81978399 1.1413369 5654855
-0.37467766 0.82058042 1.1423858 5851977
-0.34481901 0.82496917 1.144071 5917513
-0.31357518 0.82363468 1.1461251 5983562
-0.28415754 0.82461536 1.147375 6115148
-0.25685123 0.82410485 1.1518697 6312011
-0.2245253 0.8246277 1.1525012 6377548
-0.19597898 0.82610834 1.1562703 6574670
-0.16688368 0.82407343 1.1602328 6705743
-0.13439411 0.82599324 1.161298 6771536
-0.10454781 0.82392174 1.1607621 6837331
-0.07562805 0.82495749 1.1609181 6771792
-0.043347035 0.82316059 1.1611059 6837585
-0.016084781 0.82469136 1.1632389 6706257
0.013984144 0.82355756 1.1618226 6837329
0.044822622 0.82210833 1.1622221 6771536
0.068908438 0.82740563 1.1617795 6575449
0.095198274 0.83053637 1.167035 6772055
-0.51236284 0.85913599 1.1412547 724504
-0.50844383 0.85451907 1.1423682 1512479
-0.36236572 0.8681885 1.1402249 5589566
-0.34217098 0.85640997 1.1421975 5720130
-0.31483221 0.8546828 1.1433786 5851718
-0.28488386 0.8550598 1.1439354 5917511
-0.25433832 0.85457027 1.1500435 6049099
-0.2242353 0.85700315 1.1522813 6180426
-0.19455092 0.8511942 1.1566136 6377548
-0.16521166 0.85186082 1.1571825 6508621
-0.13501671 0.85125351 1.1570327 6508620
-0.10571774 0.85139734 1.1582345 6640206
-0.074276 0.85154569 1.1571388 6640207
-0.043929838 0.85221499 1.1582333 6574929
-0.016016996 0.85290676 1.159664 6574672
0.014847728 0.85384792 1.1595246 6574671
0.04543145 0.85472721 1.1598034 6574415
0.069378652 0.85308021 1.1603489 5128513
0.095109768 0.85456675 1.1642476 6771540
-0.51162857 0.87673819 1.1427672 725270
-0.50894284 0.88036782 1.1410193 1971753
-0.30864936 0.87973416 1.1413245 5654341
-0.28356689 0.88169098 1.1416279 5720388
-0.25317255 0.88363481 1.1475313 5851462
-0.22370912 0.88423949 1.148605 5917255
-0.19468497 0.88327277 1.1483014 6048329
-0.16674586 0.88462216 1.1484123 6180169
-0.13430671 0.88438088 1.1483434 6245706
-0.10515995 0.88446939 1.1493505 6180427
-0.074425429 0.88454282 1.1498847 6246219
-0.045355789 0.88463879 1.1486238 6246220
-0.01488501 0.88517565 1.1542735 6246221
0.016265277 0.88591987 1.1541469 6246477
0.04463122 0.88740498 1.1509292 6311757
0.072857425 0.88664693 1.1551312 4865342
0.095143445 0.88565952 1.1640042 6640205
-0.27165321 0.91399628 1.1414734 5522754
-0.25483194 0.91475654 1.1431421 5588290
-0.22381425 0.91358346 1.1482216 5719877
-0.19534238 0.91491818 1.1460271 5785670
-0.1651617 0.91523039 1.1472889 5982793
-0.13446039 0.91415775 1.148665 6048585
-0.10586201 0.91515702 1.1484387 6048585
-0.074969895 0.91468507 1.1495216 6049098
-0.044086639 0.9141283 1.1476923 6114892
-0.015605676 0.91627264 1.1511019 6114893
0.01547263 0.91484594 1.1505759 6114891
0.045822676 0.91544771 1.1508756 6114892
0.075605467 0.91414672 1.155697 3616557
0.094156928 0.91533911 1.1603612 6312015
-0.27338734 0.94121891 1.1405727 5456962
-0.25575915 0.9410274 1.1407574 5522241
-0.22511296 0.94020265 1.141432 5588034
-0.19689123 0.93929845 1.1432734 5719618
-0.16440511 0.94006157 1.14113 5850950
-0.13455887 0.93997955 1.1427394 5916743
-0.10454499 0.94032139 1.1433598 5917255
-0.076670714 0.94333702 1.1426823 5983048
-0.043588758 0.94425458 1.1449856 5983305
-0.016476516 0.94448388 1.1469918 5983306
0.013101813 0.94457662 1.1454989 5983306
0.04534876 0.94543785 1.145535 6114635
0.076254234 0.94261658 1.153358 4866112
0.099796988 0.94454145 1.1543806 6179920
-0.18823418 0.96923488 1.1409549 5653826
-0.1747762 0.96173638 1.1406813 5850440
-0.13277754 0.97125846 1.1407573 5719876
-0.10385969 0.96702701 1.1407232 5851720
-0.080507144 0.96235633 1.1403828 5851975
-0.043850593 0.96777248 1.141193 5851719
-0.01517643 0.96820551 1.1417743 5851462
0.012470858 0.96777374 1.1408817 5851465
0.046259917 0.97318918 1.1416867 5983050
0.076123044 0.97107989 1.1523764 3813941
-0.37421525 0.6517182 1.1712171 8285032
-0.35807431 0.65171814 1.1712171 8416361
-0.25626409 0.64917791 1.1798429 6969169
-0.22568987 0.65032387 1.1840974 7823708
-0.19528382 0.65476102 1.1819608 9139312
-0.16438535 0.65480375 1.1824298 9336178
-0.13470407 0.65514445 1.1853 9336176
-0.095189855 0.65672606 1.1828643 9532518
-0.072755791 0.65660334 1.1883991 11112324
-0.044851553 0.6552431 1.1899668 11704976
-0.01560225 0.65743583 1.1908087 10849150
0.012756348 0.65764713 1.1908226 10652036
-0.30313432 0.66337264 1.1711543 7165781
-0.29008803 0.6642946 1.1707102 7099989
-0.25100893 0.67555672 1.1731958 7231316
-0.22453938 0.67741746 1.1780035 7362389
-0.19509381 0.67521751 1.1756822 7428180
-0.16475505 0.67497659 1.1749766 7625044
-0.13701789 0.67654753 1.1784421 7624792
-0.10248228 0.67555022 1.177229 7559766
-0.074646592 0.67621583 1.1788951 7559766
-0.045321774 0.67616838 1.1796442 7559767
-0.017889855 0.67460513 1.1826475 7822425
0.016820155 0.67422563 1.1823648 7822423
0.045399591 0.67515481 1.1812057 7887962
0.068154 0.67020303 1.178964 8020065
-0.25202021 0.70227712 1.1728479 7100244
-0.22415185 0.70247197 1.1759963 7231318
-0.19618391 0.70275146 1.176373 7362647
-0.16497745 0.70476341 1.1761281 7493460
-0.13600282 0.70352161 1.1773716 7559252
-0.10340973 0.70339233 1.1758893 7493975
-0.07515692 0.70271945 1.1765466 7493975
-0.043491688 0.70398468 1.178808 7494232
-0.016020278 0.70620787 1.1804991 7559767
0.014904836 0.70402664 1.1796769 7559766
0.044837721 0.70309007 1.1789749 7625303
0.064767204 0.70312852 1.1782116 7427926
-0.24960098 0.72702289 1.1704696 7034708
-0.22457363 0.73310232 1.1708716 7165781
-0.18967977 0.72446591 1.171701 7231574
-0.16255036 0.73524928 1.1720575 7362646
-0.13497245 0.73630536 1.1722888 7362646
-0.10473455 0.73626226 1.1723096 7297109
-0.074239448 0.73587859 1.1717545 7363159
-0.043057911 0.7341451 1.173731 7362904
-0.015135159 0.73132014 1.1766424 7428440
0.014168072 0.7345553 1.1745745 7428439
0.044197518 0.73669559 1.1721504 7428183
0.069159776 0.73646313 1.1740723 7823707
-0.2417343 0.76365542 1.1716969 7099995
-0.23909239 0.76484561 1.1711237 7034713
-0.18757525 0.76484561 1.1711237 7231579
-0.16288158 0.75890654 1.1719859 7296855
-0.13522628 0.76302731 1.1722629 7231317
-0.10656675 0.75739735 1.1716584 7297366
-0.074031882 0.75831813 1.1721531 7231831
-0.043133318 0.76070625 1.1723508 7231831
-0.015529361 0.76455754 1.1730785 7231831
0.015461992 0.76488727 1.1734005 7231574
0.044609319 0.76458085 1.1708813 7231574
0.070965879 0.77273053 1.175836 5325118
-0.014793652 0.79197067 1.1702701 6968662
0.010651429 0.78950483 1.1714575 7034705
0.08370667 0.79861033 1.1782986 1444874
0.093637504 0.79815638 1.1718695 7166039
0.082923815 0.82818544 1.1750283 1445648
0.091332607 0.82621139 1.1741291 7429472
0.084156916 0.85188442 1.1736047 2366495
0.090864763 0.85001647 1.1711745 7561061
0.087617613 0.87718904 1.1730726 5194311
