# .PCD v0.7 - Point Cloud Data file format
VERSION 0.7
FIELDS x y z rgb
SIZE 4 4 4 4
TYPE F F F U
COUNT 1 1 1 1
WIDTH 322
HEIGHT 1
VIEWPOINT 0 0 0 1 0 0 0
POINTS 322
DATA ascii
0.44604382 0.97423172 1.1385484 5195085
0.45470855 0.98349833 1.1379706 5260878
0.59430861 0.99415886 1.1394963 4473424
0.074869618 0.70148766 1.1665689 4996667
0.14442667 0.69436616 1.1684377 4732218
0.10608617 0.74489254 1.1685237 6573645
0.13603738 0.73666877 1.1683217 5850955
0.15507303 0.74224997 1.1697962 6771281
0.077687532 0.77217841 1.1677034 2498850
0.10698663 0.7665382 1.1684799 6705485
0.13102578 0.76916593 1.1692898 6771281
0.16780327 0.76935881 1.169426 6705742
0.19135663 0.7687903 1.1692468 6574671
0.40564227 0.759974 1.169474 5786958
0.43105066 0.77235508 1.1687098 5721166
0.52233148 0.77954704 1.1695935 5262159
0.07748881 0.78332078 1.1663888 2564131
0.10547953 0.795771 1.1661584 6639951
0.13518709 0.79557896 1.1659427 6639951
0.16479068 0.79555434 1.1668129 6639952
0.19394732 0.79516917 1.1666948 6508623
0.28525713 0.80795223 1.1692331 5984079
0.31512001 0.80795223 1.1692331 5984078
0.34498286 0.80795223 1.1692331 5721678
0.37484574 0.80795223 1.1692331 5590350
0.40896001 0.80499721 1.1686584 5589581
0.43278822 0.79731596 1.1677554 5589581
0.4914 0.80795228 1.1692331 5392718
0.52192003 0.79490292 1.1688579 5262159
0.55959433 0.80795228 1.1692331 4999503
0.5783143 0.80795228 1.1692331 4998479
0.61749715 0.80273247 1.169083 4933202
0.63956523 0.80192745 1.1688049 5460317
0.10737387 0.82294667 1.1643751 6508364
0.134707 0.82513648 1.1643318 6508366
0.16516685 0.82588512 1.1657357 6377292
0.19362313 0.82390022 1.1638359 6245965
0.22016728 0.83598554 1.1679423 6180684
0.26054505 0.82916045 1.1684542 5983820
0.2826449 0.81899196 1.1685151 5983824
0.31594545 0.82214075 1.1686437 5852750
0.34524825 0.82543933 1.1666476 5720652
0.37522256 0.82370484 1.1677655 5655372
0.40507898 0.82394844 1.1669288 5589581
0.4358986 0.82518804 1.1640214 5523532
0.46433482 0.83048695 1.167109 5457485
0.49395111 0.8244009 1.1672122 5326925
0.52517325 0.83007902 1.1675915 5130062
0.55653918 0.82485121 1.166593 4933198
0.5835557 0.82686883 1.1667328 4867661
0.61656529 0.82481223 1.1671233 4867919
0.64344954 0.82464391 1.1645253 4868695
0.10853417 0.85807765 1.1612989 6245195
0.13493255 0.85419708 1.1602887 6245451
0.16578524 0.85592586 1.1609392 6179915
0.19383064 0.85694009 1.1616615 6048843
0.22522415 0.85525221 1.1670992 6049101
0.25487292 0.85571784 1.1657897 5918027
0.28494942 0.85578161 1.1675657 5852493
0.3146511 0.85535216 1.1674951 5721167
0.34495884 0.85568869 1.1673331 5589582
0.37490958 0.85517722 1.1671809 5458508
0.40543127 0.85697615 1.1637508 5458252
0.43570009 0.85782593 1.1623182 5392205
0.46518469 0.8547771 1.1662396 5326923
0.49514961 0.85491389 1.1662089 5195853
0.52531302 0.85494053 1.1670804 5129806
0.55573994 0.85677361 1.1641303 4933196
0.58375466 0.85695165 1.1643516 4867661
0.61470389 0.85511678 1.1650001 4867920
0.64232242 0.85341316 1.1616659 4737879
0.13557592 0.88574678 1.1595349 6113865
0.16591813 0.88688558 1.1585164 6048329
0.19472542 0.88548267 1.1607682 5982794
0.225674 0.88661957 1.1620771 5851978
0.25476488 0.8872236 1.160919 5786443
0.28619647 0.88534868 1.1622392 5721165
0.31529111 0.88694686 1.1605303 5655631
0.34371126 0.88668489 1.1617169 5524045
0.37332714 0.88677001 1.160604 5458508
0.40508503 0.88586998 1.159014 5326668
0.43518734 0.88574886 1.1582009 5261132
0.46579063 0.88710254 1.1618859 5261134
0.49537632 0.88778812 1.1613091 5195854
0.52495587 0.8870132 1.1602734 5064271
0.55530101 0.88730747 1.1605417 4867404
0.58430302 0.88501716 1.1588686 4801357
0.61477476 0.88711989 1.1605333 4736336
0.64448971 0.88690895 1.160836 4671317
0.66190958 0.88120276 1.1661452 2436690
0.1356615 0.91400909 1.1582028 5982538
0.16475114 0.91539985 1.1591828 5982538
0.19509037 0.91531682 1.1592557 5851463
0.22553349 0.91654849 1.1614218 5720395
0.25475448 0.91508251 1.1601443 5654858
0.2850084 0.91693777 1.1616122 5589579
0.31597987 0.91610295 1.1608865 5524044
0.3453576 0.91554523 1.1603253 5392973
0.37452963 0.91593564 1.1590192 5392716
0.40546331 0.91547251 1.1594167 5261131
0.43655396 0.91420472 1.1561849 5195597
0.46288309 0.9167009 1.1580286 5260878
0.49329048 0.91604608 1.1582042 5129806
0.52546918 0.91710275 1.1566113 4998476
0.55737376 0.91575146 1.155478 4867405
0.58332729 0.91710269 1.1532072 4736079
0.61549646 0.91777337 1.1518662 4605008
0.64523005 0.91324443 1.1549919 4474711
0.16345736 0.94441116 1.1533606 5917003
0.19511832 0.94330716 1.1531636 5786185
0.22371221 0.94264126 1.157783 5786444
0.25540423 0.94330323 1.1570464 5655115
0.28579178 0.94324028 1.1555169 5655374
0.31445399 0.94358575 1.1557858 5524300
0.34391537 0.94340783 1.1550891 5392717
0.37581196 0.9440468 1.1526374 5392716
0.40472484 0.94339031 1.1518364 5261388
0.43611413 0.94396424 1.1503413 5195341
0.46227321 0.94239062 1.1522175 5195341
0.49474943 0.94201946 1.1565332 5064014
0.52452826 0.94267029 1.1533644 4933198
0.55432725 0.94412589 1.1523439 4801869
0.58346778 0.94346404 1.1519831 4670286
0.61330384 0.94461483 1.1501554 4670544
0.64228588 0.94606984 1.1512117 4474450
0.34447211 0.9756906 1.1498368 5458510
0.37423038 0.9755922 1.147149 5458510
0.40523115 0.97420478 1.1451346 5327182
0.43407804 0.97494453 1.1438937 5261134
0.46692178 0.97269517 1.1479762 5261391
0.49425888 0.97242206 1.1486323 5064013
0.52365839 0.97446805 1.1466814 4998478
0.55568796 0.97376442 1.1477345 4735822
0.58636487 0.97335094 1.1468935 4604493
0.61513317 0.97322887 1.1481487 4538959
0.43392858 0.99165666 1.1407013 5458513
0.45961717 0.99165666 1.1407013 5523541
0.50426668 0.9932251 1.1466056 5064016
0.53460002 0.99165666 1.1407013 4933458
0.55496573 0.9916566 1.1407013 4802128
0.58409667 0.9922061 1.1409917 4670287
0.08554858 0.65785944 1.1937878 3086347
0.10613658 0.65673035 1.190154 10454647
0.1344227 0.65359217 1.1900052 11442311
0.16493054 0.65696496 1.1899321 9929070
0.19519536 0.65673441 1.1899947 10192502
0.22469802 0.65733212 1.1899562 10061950
0.25783983 0.65540731 1.1915612 8222056
0.28544274 0.65768784 1.1932727 12037546
0.31505832 0.65856159 1.1925617 13024181
0.3423686 0.65854269 1.1923488 12826809
0.37959999 0.65901315 1.1976718 12564408
0.40708858 0.65887201 1.196075 12564407
0.42647457 0.65848249 1.1929697 11906478
0.48814997 0.65901315 1.1976718 12367545
0.53560001 0.65901315 1.1976718 12170172
0.55379999 0.65901315 1.1976718 12104636
0.58456665 0.65901315 1.1976718 11908028
0.61494333 0.65866178 1.197841 11776444
0.64610004 0.65812075 1.1981015 10856379
0.08218091 0.67685294 1.1867051 1772813
0.10230028 0.67490292 1.1824112 6835781
0.13558814 0.67450875 1.1769675 6770252
0.1643644 0.67258942 1.1779156 6836043
0.19575393 0.67434973 1.1804793 6968401
0.22479488 0.67716312 1.1800519 6705486
0.25355735 0.67540747 1.182255 7166296
0.28472191 0.67427641 1.1848198 7298652
0.31533018 0.67401385 1.1842293 7233372
0.34439972 0.67386663 1.1836815 7101790
0.3751007 0.67445415 1.1850122 7102047
0.40596715 0.67335117 1.1853025 7036511
0.434661 0.67329162 1.1864638 6641755
0.46497869 0.67273623 1.1890785 6708061
0.49436542 0.67249447 1.1897566 6445404
0.5248552 0.67258495 1.1883184 6248797
0.55482155 0.67289346 1.1894408 6051420
0.58583426 0.67224705 1.1890888 6117727
0.61570632 0.67251629 1.1894225 5920608
0.64530724 0.6778881 1.1891584 5789541
0.66321266 0.67581153 1.1937444 2370641
0.080904007 0.70316899 1.1783171 2827042
0.10301064 0.70454752 1.1794765 6770252
0.13373147 0.70569134 1.1759793 5389631
0.16687396 0.70381713 1.1770682 4797497
0.19547138 0.70477611 1.1792862 6048072
0.22435786 0.70621032 1.1806182 6639951
0.25573942 0.7046783 1.1800761 6377551
0.28370959 0.70419711 1.1827013 6311760
0.31462124 0.70440125 1.1804605 6114895
0.34406722 0.7043705 1.1829445 5983565
0.37420538 0.70463002 1.1802773 5918029
0.40614787 0.70479268 1.1835322 5851982
0.43559322 0.70616317 1.1851139 5851981
0.46499348 0.70540094 1.1839309 5720653
0.49579054 0.70489627 1.1858517 5655632
0.5256381 0.70303017 1.1827514 5393230
0.55503833 0.70515418 1.1853657 5327696
0.58546197 0.70651263 1.1862755 5196368
0.61562079 0.70360923 1.1874717 5262675
0.64531142 0.70495224 1.1827319 4605269
0.66252613 0.71431422 1.1799195 1317432
0.085045718 0.73203534 1.1835946 4602939
0.10128134 0.73471552 1.177761 6639182
0.13605908 0.72970116 1.1754467 5850436
0.1650078 0.7350719 1.1733761 5784648
0.19707175 0.73254353 1.1759442 6442317
0.22443084 0.73256969 1.1789646 6443342
0.25519803 0.73356658 1.1789709 6312014
0.28302473 0.73320037 1.179529 6180942
0.31468326 0.73247498 1.1792456 6049615
0.34487456 0.73216546 1.178526 5983564
0.37546512 0.73227352 1.1788297 5852749
0.40502787 0.73141086 1.1774302 5786703
0.43506384 0.73430377 1.1799852 5786446
0.46588093 0.73576844 1.18048 5655373
0.49422848 0.73576075 1.1805935 5524560
0.52518928 0.73740739 1.1816748 5327439
0.55533576 0.73589057 1.1809527 5196368
0.58465582 0.73600733 1.1806238 5131088
0.61564559 0.73606282 1.180616 5131346
0.64423054 0.73656219 1.18051 5197145
0.66222239 0.72894979 1.1817508 1383738
0.083907597 0.76170033 1.1790389 4537145
0.10113218 0.76547951 1.1750563 6705490
0.13697797 0.76656032 1.1729327 6771281
0.16490455 0.76416963 1.1722344 6705743
0.19604185 0.76512486 1.1742262 6639951
0.22474773 0.76612055 1.178906 6443342
0.2541793 0.76312059 1.178943 6312014
0.28622574 0.76601464 1.1788646 6246481
0.31358653 0.76568371 1.1792021 6115154
0.34612653 0.76510239 1.1782326 5984079
0.3728272 0.76602983 1.1779343 5852751
0.40470251 0.76429945 1.1729792 5852495
0.43804643 0.76354319 1.1771976 5720909
0.46242142 0.7645418 1.1787074 5589837
0.49632761 0.76606721 1.178561 5524560
0.52394664 0.76529253 1.1774242 5392976
0.55424577 0.76552641 1.1764508 5196368
0.58540535 0.76560962 1.1762259 5065040
0.61599314 0.76563644 1.1769491 4999504
0.64491403 0.76664245 1.1777269 4605265
0.66180289 0.77377558 1.1823621 988212
0.086625405 0.78525448 1.1749842 3483169
0.091868579 0.78410673 1.1740571 7100506
0.14778858 0.79250377 1.1700133 6706000
0.1699875 0.79517764 1.1709454 6639954
0.19668515 0.79145545 1.1720403 6574160
0.22505461 0.79423863 1.1736865 6377550
0.25477079 0.79475749 1.1740308 6246480
0.28517663 0.79310101 1.1751583 6180688
0.31492373 0.79366142 1.1737475 5984079
0.34491417 0.79393166 1.1743454 5918287
0.37493974 0.79383314 1.1727365 5786960
0.40480408 0.79394317 1.1726441 5721166
0.43654135 0.79422224 1.1726476 5655119
0.46441057 0.79294103 1.176566 5523789
0.49618644 0.7924127 1.1762509 5458510
0.52365482 0.79347479 1.1751921 5261646
0.55567628 0.79271102 1.1762336 5130319
0.58508974 0.79183221 1.1764692 5064783
0.61375982 0.79223639 1.1750928 4933712
0.64625216 0.79225224 1.1733582 4539733
0.66190952 0.79447097 1.1768353 1843787
0.20863493 0.82343847 1.1721348 6377038
0.2251668 0.824431 1.1721501 6180684
0.25455621 0.82519597 1.1722504 6049356
0.28527576 0.82733655 1.1719468 5918287
0.31477726 0.82650238 1.171748 5852494
0.33127621 0.82646811 1.1714156 5786702
0.37713712 0.82746613 1.1713314 5655372
0.41259813 0.82574844 1.1706522 5655119
0.43515956 0.82315773 1.171345 5524301
0.46966642 0.82050103 1.1720695 5392205
0.49073404 0.82122278 1.1717219 5326924
0.52215356 0.81909621 1.1719135 5195599
0.55491978 0.81676316 1.1716497 4998988
0.58557755 0.81619292 1.1719242 4867405
0.61462945 0.81635636 1.1718456 4867920
0.64843422 0.81849712 1.1723408 4145491
0.66168094 0.82156742 1.1748856 2632529
0.23108169 0.84364569 1.1709129 6180683
0.25450188 0.84367961 1.1708966 5918282
0.28692585 0.84840584 1.1712841 5786957
0.31783402 0.8467412 1.171087 5721422
0.34456053 0.85054857 1.1709183 5655117
0.37352005 0.84374732 1.170864 5523787
0.45346889 0.85710543 1.1710904 5392212
0.48676515 0.85346788 1.1706223 5261386
0.52173424 0.85075116 1.1708207 5195342
0.62923908 0.85792172 1.1706972 4934225
0.13397779 0.65238363 1.2017893 12824740
0.17405525 0.65719515 1.2040969 12825251
0.19026834 0.65659463 1.2052186 12693673
0.22985558 0.65505958 1.2051253 12694445
0.25484055 0.65375859 1.2035936 12563114
0.27937406 0.65688854 1.2050769 10722191
0.35163337 0.65848827 1.2034743 12432819
0.37543359 0.65882498 1.2054526 12235697
0.4064199 0.65939111 1.2070351 12301746
0.4288013 0.65866327 1.2056098 12235703
0.46188575 0.65907604 1.2031912 12169647
0.50168097 0.65907604 1.2031912 12104632
0.53163177 0.65953147 1.212221 11841973
0.55508965 0.65950412 1.2110186 11644342
0.58395636 0.65927482 1.2112788 11513267
0.61581129 0.65820575 1.2098957 11381684
0.64173949 0.65781546 1.2108619 10725053
0.090422854 0.67849225 1.2005002 4136704
0.29159337 0.66169482 1.2052598 12695466
0.31465507 0.66270059 1.2060968 12826550
0.34545624 0.66185158 1.2051843 12629686
0.36820385 0.66166222 1.2019458 12630200
0.40367374 0.66189426 1.2047198 12564150
0.44158953 0.66217554 1.2036965 12235959
0.46310908 0.66178393 1.208369 11906991
0.49506786 0.6619184 1.2095045 12038838
0.52333164 0.66187853 1.2094699 11973046
0.55886519 0.66189075 1.2067907 11710391
0.58187711 0.66177142 1.2082195 11776437
0.63824052 0.6618672 1.2090244 11513269
