# .PCD v0.7 - Point Cloud Data file format
VERSION 0.7
FIELDS x y z rgb
SIZE 4 4 4 4
TYPE F F F U
COUNT 1 1 1 1
WIDTH 260
HEIGHT 1
VIEWPOINT 0 0 0 1 0 0 0
POINTS 260
DATA ascii
0.52829862 0.83405089 1.2282543 8086874
0.55923814 0.83219594 1.2285926 8680555
0.57841575 0.82974225 1.2286644 11843800
0.44872671 0.85503072 1.2275854 8810337
0.46565878 0.85493684 1.2276306 9007973
0.48530006 0.85503072 1.2275854 9205864
0.52612001 0.84198076 1.2261004 5520951
0.55865955 0.85207683 1.2264181 8351334
0.57697576 0.85640973 1.2253674 11382733
0.57865906 0.68815434 1.2591125 11777486
0.50112998 0.71844935 1.2578422 9271927
0.52093053 0.71214485 1.2586584 9271929
0.55530709 0.71226287 1.2586015 9075576
0.5785858 0.70530182 1.2555717 12106195
0.38741145 0.74519795 1.2593896 9993076
0.39963087 0.74619877 1.2589078 9730160
0.43823236 0.74035013 1.2590605 9533554
0.46518043 0.73949409 1.2586359 9468275
0.49650985 0.73567569 1.2562485 9205874
0.52328199 0.73580772 1.2553098 9206134
0.55341238 0.73608637 1.2568643 8943734
0.58132094 0.74106073 1.258476 11184573
0.32079792 0.76823872 1.2582829 9927017
0.33883023 0.77017492 1.2580166 9795693
0.38670573 0.76761395 1.2585839 9533032
0.39850026 0.76595885 1.2584295 9467499
0.4363741 0.77009928 1.2545042 9467758
0.46585903 0.7662161 1.2524713 9271150
0.49466074 0.76339275 1.2487997 9139567
0.52473855 0.76185924 1.2466025 8942962
0.55493367 0.76826054 1.2515391 8746099
0.57878107 0.76672465 1.2476873 11119039
0.25598347 0.79494309 1.2587419 9926504
0.28568888 0.79609895 1.256206 9860970
0.31416461 0.79746085 1.2553929 9729642
0.344381 0.79846114 1.2535224 9729898
0.3765606 0.7975077 1.2534742 9532778
0.40497568 0.79911488 1.2537361 9467243
0.43583176 0.79491073 1.2489818 9336428
0.46310472 0.79567498 1.2452412 9205360
0.49669302 0.79585165 1.242111 9073776
0.52372855 0.79332751 1.2384859 8942703
0.55488706 0.79656583 1.2413117 8680048
0.57735121 0.7958771 1.2386169 10921917
0.20516571 0.83522165 1.2582134 10058355
0.22939818 0.82460052 1.2581487 9860454
0.25578293 0.82446128 1.2580305 9794919
0.28602251 0.82675159 1.2520704 9597540
0.31391016 0.82465309 1.2504848 9597795
0.34471381 0.82517725 1.2477316 9400932
0.37802666 0.82420045 1.2474136 9335398
0.40509185 0.82811409 1.2418797 9072740
0.4340609 0.82704461 1.2414234 9073253
0.46530932 0.82256472 1.2391371 9074026
0.49368632 0.82118702 1.2388465 8942442
0.52485317 0.82415968 1.2341541 8811368
0.55822289 0.82162136 1.2349237 8811635
0.57790989 0.82310742 1.2335663 11185091
0.22479516 0.85494101 1.253966 9729899
0.25347269 0.85505509 1.2515001 9861481
0.28391266 0.85059309 1.2496042 8678753
0.31432232 0.84909689 1.2460928 9335138
0.34462568 0.84890199 1.2397078 9335653
0.37249002 0.85051918 1.2412416 8941931
0.40261683 0.84637487 1.2399533 6771267
0.43458351 0.84328461 1.2390133 6376771
0.46797538 0.85192877 1.2325674 7627609
0.49022341 0.8461591 1.2318575 5852485
0.55490357 0.85650271 1.2302061 6904657
0.57796031 0.8584463 1.2303801 11119819
0.44660002 0.59825921 1.2890848 10128263
0.45945674 0.59825921 1.2890848 10062218
0.49904037 0.59232986 1.288344 9931147
0.52200341 0.58977461 1.2884403 9931150
0.5579989 0.59493697 1.2876878 9865616
0.5776031 0.58692354 1.2861751 11249080
0.33982575 0.62544429 1.2893121 10389631
0.38145098 0.62667394 1.2887199 10192517
0.40791717 0.62072653 1.2889202 10192770
0.43557003 0.61925572 1.2873859 10127493
0.46385628 0.61520064 1.285782 10061959
0.49683604 0.61450881 1.2862538 9930632
0.52447641 0.61448675 1.2855985 9799562
0.55534852 0.61459404 1.2859213 9733771
0.23532857 0.65547985 1.2881666 10453368
0.24319251 0.65477133 1.2885078 10519417
0.28567421 0.65475661 1.288515 10322810
0.31709105 0.64846438 1.2888812 10323068
0.34507179 0.64544713 1.2880033 10257535
0.37674573 0.64506704 1.2831128 10126206
0.40372378 0.64415169 1.2844228 10060927
0.43574446 0.64401788 1.2812729 9995391
0.46562165 0.64511681 1.2818121 9864065
0.49620229 0.64343286 1.2795832 9732737
0.52586621 0.64595598 1.27658 9667460
0.55499423 0.64571667 1.2805007 9470340
0.57597381 0.65545213 1.2815205 9800333
0.23125081 0.67343462 1.2879221 10453621
0.25469679 0.67565006 1.285908 10519160
0.28490761 0.67560458 1.2853026 10453370
0.31565952 0.67430645 1.2825555 10256762
0.34496933 0.67521471 1.2854782 10190970
0.37705395 0.67520905 1.2829863 10059897
0.40438721 0.67300653 1.279794 9928826
0.43646422 0.67549133 1.2776871 9797497
0.4631528 0.67268169 1.278844 9798012
0.49591744 0.67651552 1.2724599 9600893
0.5249573 0.67352909 1.2691576 9601152
0.55508751 0.67603678 1.2715726 9273215
0.57507145 0.66269755 1.2758114 9800335
0.23181677 0.70589256 1.2841805 10321525
0.25660852 0.7075032 1.285594 10321523
0.28496793 0.70506072 1.2804061 10321781
0.31506753 0.70495915 1.27952 10124657
0.34517473 0.7048173 1.2757101 10059125
0.37473238 0.70432401 1.276806 9928055
0.40481007 0.70555842 1.2747254 9862520
0.43436876 0.7073223 1.2727567 9731445
0.46495804 0.70473266 1.2717181 9665913
0.49484447 0.70369256 1.2684621 9469048
0.52727836 0.70383769 1.2649623 9337978
0.55353683 0.70315659 1.2653962 9075321
0.57206613 0.7054143 1.2624174 9537162
0.23519999 0.73577452 1.2772466 10255731
0.25475559 0.73569447 1.2772852 10189938
0.28551421 0.73662156 1.2744102 10124145
0.31572518 0.73399431 1.2714983 9993072
0.34438333 0.73364729 1.2695488 9993074
0.37508073 0.73479575 1.2696987 9796208
0.40609023 0.73172951 1.2671051 9730674
0.43302801 0.73364806 1.2652906 9599601
0.46460798 0.73481679 1.2621691 9402993
0.49474022 0.72597593 1.2619869 9337972
0.52548569 0.72491926 1.2624958 9271673
0.54953408 0.73290521 1.2619797 9075060
0.585168 0.73588091 1.262925 12040659
0.23083135 0.76420456 1.270174 10058345
0.25375754 0.76490253 1.2703247 10058348
0.28568211 0.76257205 1.2690005 9926763
0.31293991 0.76258171 1.2668927 9860971
0.34867907 0.76115531 1.265445 9795692
0.37415373 0.76323181 1.2679677 9664108
0.40499261 0.76494557 1.2619901 9467499
0.43129194 0.76193315 1.2619671 9533292
0.45128387 0.75622052 1.2607409 9665394
0.20031248 0.79324192 1.2689955 7362894
0.22984032 0.79522866 1.267325 9860711
0.25517318 0.79704624 1.2626208 9926505
0.28197592 0.78776693 1.2623996 9860968
0.31495938 0.78429985 1.2616476 9663848
0.34463337 0.78469205 1.2614589 9729898
0.37417337 0.78363591 1.2619673 9467243
0.41046536 0.78418505 1.2617028 9467501
0.42200002 0.78405833 1.261764 9467502
0.20486042 0.82825327 1.2615691 9335139
0.23078276 0.82308072 1.2614703 9992043
0.25353175 0.82293433 1.2615408 9926504
0.24334285 0.84428847 1.2616162 9531498
0.4470309 0.47174317 1.3178241 2893610
0.46306983 0.47001693 1.3156897 4012092
0.2869229 0.49853411 1.318796 11705240
0.31647757 0.50564802 1.3188586 11311257
0.3421455 0.5053156 1.318305 11442327
0.37465715 0.50893694 1.319891 11245464
0.40560523 0.50204927 1.3179489 11312031
0.43554011 0.50186342 1.3171875 10983322
0.46470451 0.49909469 1.3165442 11049373
0.49463502 0.49907532 1.3141996 10852254
0.52359009 0.50180924 1.3148731 10523546
0.55478835 0.5016216 1.3110682 10523808
0.23511094 0.5375154 1.3183376 10915204
0.25828701 0.53376728 1.3184776 11441298
0.28651267 0.52567762 1.3178643 11441810
0.31353739 0.52370536 1.3146925 11310740
0.34480798 0.52424765 1.3181465 11376278
0.37487623 0.52502507 1.3157533 11376792
0.40555125 0.52618051 1.3126982 11179930
0.43443048 0.52655929 1.3121719 10983066
0.46629035 0.52424026 1.3082471 10720151
0.49350235 0.52454698 1.3069339 10523034
0.52340364 0.52332038 1.3095213 10391704
0.55517852 0.52287996 1.3089523 10392221
0.57574785 0.52259386 1.3085918 10459048
0.23337825 0.56000656 1.3146015 11112074
0.25608402 0.558474 1.3125457 11112587
0.28452608 0.55784076 1.3105772 11178381
0.31591219 0.55461687 1.3097049 11113103
0.34475616 0.55623871 1.3102123 10981775
0.37287471 0.55596656 1.3098184 10718862
0.40392628 0.55494165 1.3061469 10587534
0.43424094 0.55456096 1.3026694 10522513
0.46564358 0.55525273 1.3002821 10391185
0.49482501 0.5538255 1.2993977 10259858
0.52453768 0.55676407 1.3007611 10194581
0.55500519 0.55624461 1.3001039 10129047
0.57391012 0.55609787 1.2990571 10261664
0.23494017 0.58445907 1.3096044 10651777
0.25763363 0.58438039 1.3061681 10980742
0.28383994 0.58552921 1.3025881 10981001
0.31426576 0.58512944 1.3011366 10849929
0.34454298 0.58598471 1.3039861 10784393
0.37431535 0.58615613 1.3035057 10587273
0.40620631 0.58652931 1.3030074 10456203
0.43732902 0.58453101 1.3006732 10390670
0.46482089 0.58286762 1.2979324 10259595
0.49516016 0.58435428 1.2935793 10128271
0.52717751 0.58279049 1.2959327 9997201
0.55321652 0.5838275 1.2957997 9997202
0.57612646 0.58239383 1.2913973 10392740
0.23559028 0.61442333 1.3051132 10585983
0.25665089 0.61504728 1.3022316 10717571
0.28282464 0.61488837 1.2996352 10652035
0.31675994 0.61268121 1.2978344 10652292
0.34640029 0.61204118 1.2988799 10586757
0.37429413 0.61142844 1.2979913 10455685
0.40515757 0.61058241 1.2961222 10389894
0.43118066 0.6107446 1.2923954 10193542
0.47566664 0.60445863 1.2927586 10062728
0.4948287 0.60581565 1.2921051 9996684
0.53044093 0.61087841 1.2926382 9930891
0.55389839 0.62263376 1.2906655 9799563
0.23360899 0.64116418 1.2951802 10454139
0.2545177 0.64094335 1.2956895 10520190
0.28485423 0.64063692 1.2957193 10454655
0.31512219 0.64311022 1.2924588 10322813
0.34295982 0.6425876 1.2915211 10257534
0.37528208 0.63156146 1.2930255 10192769
0.40535641 0.63519716 1.2912747 10258566
0.23202734 0.670111 1.2911099 10519418
0.25201645 0.66815549 1.2914966 10519415
0.27975202 0.66388798 1.2918869 10453883
0.35196859 0.67251384 1.2910627 10190971
0.36184764 0.66530007 1.2912068 10257278
0.22262096 0.69341016 1.2909888 11505293
0.25683373 0.69879138 1.2910612 10453110
0.26070777 0.47487491 1.3313773 9799043
0.28528628 0.4683522 1.3311917 8417133
0.41064492 0.46503958 1.3323371 10194056
0.43414029 0.47362566 1.3279796 3682355
0.46845609 0.46969384 1.3225567 7234410
0.23194064 0.49453375 1.3383299 11638930
0.25498623 0.49269962 1.3329818 11967898
0.28265345 0.49414006 1.3245963 11902619
0.31477922 0.4959043 1.3241041 11310738
0.3467086 0.49859419 1.32354 11376533
0.37745953 0.49433413 1.3266811 11640480
0.40572301 0.49383357 1.3243606 11575718
0.43409985 0.49217337 1.3239682 11246754
0.46696901 0.4904851 1.3219125 11181216
0.49407429 0.4900859 1.3223096 10655131
0.52428478 0.49403834 1.3207761 10852255
0.54498124 0.49369144 1.3205732 10787490
0.23536955 0.52404708 1.3240836 11112586
0.25584263 0.52426285 1.322984 11441555
0.28243011 0.52666807 1.3218964 11573139
0.31264764 0.51074171 1.3245714 10192770
0.35053995 0.5266884 1.3223357 11244949
0.36337003 0.53119707 1.3213801 11573912
0.28200239 0.54446006 1.3216524 11310222
0.35097408 0.54354173 1.3220947 11113109
