# .PCD v0.7 - Point Cloud Data file format
VERSION 0.7
FIELDS x y z rgba
SIZE 4 4 4 4
TYPE F F F U
COUNT 1 1 1 1
WIDTH 1233
HEIGHT 1
VIEWPOINT 0 0 0 1 0 0 0
POINTS 1233
DATA ascii
-0.86167717 -2.2726107 5.2910004 11387618
-0.8515991 -2.2726107 5.2910004 11453411
-0.8547219 -2.3082609 5.3740001 11518691
-0.8444857 -2.3082609 5.3740001 11584484
-0.82136482 -2.2726107 5.2910004 11584745
-0.81128675 -2.2726107 5.2910004 11518952
-0.80120862 -2.2726107 5.2910004 11387875
-0.77901906 -2.237819 5.21 11387875
-0.76909524 -2.237819 5.21 11387616
-0.75917143 -2.237819 5.21 11387616
-0.74924761 -2.237819 5.21 11387366
-0.73932379 -2.237819 5.21 11387366
-0.72939998 -2.237819 5.21 11321571
-0.71947622 -2.237819 5.21 11321571
-0.70955241 -2.237819 5.21 11256032
-0.69962853 -2.237819 5.21 11321825
-0.68970478 -2.237819 5.21 11321563
-0.67978096 -2.237819 5.21 11913700
-0.66985708 -2.237819 5.21 11977448
-0.65993333 -2.237819 5.21 5990285
-0.66011524 -2.2726107 5.2910004 469069
-0.64008576 -2.237819 5.21 732241
-0.63016188 -2.237819 5.21 1976899
-0.62988102 -2.2726107 5.2910004 1713727
-0.62952572 -2.3082609 5.3740001 666439
-0.60972482 -2.2726107 5.2910004 5469328
-0.59964669 -2.2726107 5.2910004 6912658
-0.58956861 -2.2726107 5.2910004 7307416
-0.58858097 -2.3082609 5.3740001 7896979
-0.56941241 -2.2726107 5.2910004 7436428
-0.55077142 -2.237819 5.21 6251389
-0.5408476 -2.237819 5.21 1185328
-0.53092384 -2.237819 5.21 856856
-0.52099997 -2.237819 5.21 5659745
-0.51902193 -2.2726107 5.2910004 6580858
-0.50894386 -2.2726107 5.2910004 6383479
-0.46574667 -2.3082609 5.3740001 2239290
-0.45551047 -2.3082609 5.3740001 2765634
-0.4524 -2.3451998 5.46 1319485
-0.442 -2.3451998 5.46 1780036
-0.43159997 -2.3451998 5.46 5466497
-0.42120001 -2.3451998 5.46 11453660
-0.41079998 -2.3451998 5.46 11780321
-0.40040001 -2.3451998 5.46 11385563
-0.38385716 -2.3082609 5.3740001 11189205
-0.37362096 -2.3082609 5.3740001 11123412
-0.36338478 -2.3082609 5.3740001 11057627
-0.35314858 -2.3082609 5.3740001 11057627
-0.34291238 -2.3082609 5.3740001 11123161
-0.33267617 -2.3082609 5.3740001 11123161
-0.3276 -2.3451998 5.46 11057621
-0.31220379 -2.3082609 5.3740001 11123414
-0.30196762 -2.3082609 5.3740001 11123414
-0.29640001 -2.3451998 5.46 11057621
-0.28599998 -2.3451998 5.46 11057368
-0.27560002 -2.3451998 5.46 11057368
-0.26519999 -2.3451998 5.46 10991828
-0.25479999 -2.3451998 5.46 10991828
-0.24439999 -2.3451998 5.46 10991828
-0.234 -2.3451998 5.46 10926035
-0.2200781 -2.3082609 5.3740001 10925522
-0.20984191 -2.3082609 5.3740001 10925522
-0.1996057 -2.3082609 5.3740001 10925522
-0.19240001 -2.3451998 5.46 10859729
-1.6000867 -1.1644068 2.723 5975638
-1.7194172 -1.5787696 3.6920002 6059673
-1.8081477 -1.883662 4.4050002 6126493
-0.50894386 -2.2625325 5.2910004 8421243
-0.47598287 -2.2980247 5.3740001 2370070
-0.46574667 -2.2980247 5.3740001 2238788
-0.19240001 -2.3348 5.46 10794196
-0.18200001 -2.3348 5.46 10859981
-0.1716 -2.3348 5.46 10596809
-0.15621048 -2.2625325 5.2910004 10531277
-0.14613239 -2.2625325 5.2910004 10597070
-0.13605429 -2.2625325 5.2910004 10662091
-0.12795238 -2.2980247 5.3740001 10662091
-0.11771619 -2.2980247 5.3740001 10596298
-0.10748 -2.2980247 5.3740001 10464712
-0.097243808 -2.2980247 5.3740001 10332875
-0.087007619 -2.2980247 5.3740001 10332875
-0.075585715 -2.2625325 5.2910004 10267333
-0.065507621 -2.2625325 5.2910004 10267333
-0.055429526 -2.2625325 5.2910004 10267583
-0.045351431 -2.2625325 5.2910004 10201790
-0.035273336 -2.2625325 5.2910004 10136247
-0.024809523 -2.2278953 5.21 10136247
-0.014885714 -2.2278953 5.21 10135995
-0.0050390479 -2.2625325 5.2910004 10135995
0.0050390479 -2.2625325 5.2910004 10070202
0.015600001 -2.3348 5.46 10135995
0.025590478 -2.2980247 5.3740001 10201274
0.035826668 -2.2980247 5.3740001 10201274
0.045351431 -2.2625325 5.2910004 10201022
0.055429526 -2.2625325 5.2910004 10135229
0.065507621 -2.2625325 5.2910004 10201022
0.075585715 -2.2625325 5.2910004 10201022
0.085663818 -2.2625325 5.2910004 10070206
0.095741913 -2.2625325 5.2910004 10070206
0.10582001 -2.2625325 5.2910004 10201274
0.1158981 -2.2625325 5.2910004 10135481
0.1259762 -2.2625325 5.2910004 10004159
0.13605429 -2.2625325 5.2910004 10004159
0.14613239 -2.2625325 5.2910004 10004413
0.15621048 -2.2625325 5.2910004 9938620
0.16628858 -2.2625325 5.2910004 9938620
0.17636667 -2.2625325 5.2910004 9938620
0.18644477 -2.2625325 5.2910004 10069436
0.19652286 -2.2625325 5.2910004 10069436
0.20660096 -2.2625325 5.2910004 10069436
0.2200781 -2.2980247 5.3740001 10003643
0.22675715 -2.2625325 5.2910004 10069186
0.23683526 -2.2625325 5.2910004 10134979
0.25078666 -2.2980247 5.3740001 10069438
0.26102287 -2.2980247 5.3740001 9082543
0.17471144 -0.79237807 1.853 1077
0.17824095 -0.79237807 1.853 2
0.18078953 -0.78810191 1.8430001 2763565
0.18429999 -0.78810191 1.8430001 2698294
0.18781048 -0.78810191 1.8430001 2303536
0.19132096 -0.78810191 1.8430001 1186861
0.19483145 -0.78810191 1.8430001 1055275
0.19726573 -0.78382576 1.8330001 2965852
0.19966191 -0.77954954 1.8230001 7702948
0.20202 -0.77527338 1.8130001 8295604
0.20547333 -0.77527338 1.8130001 13559039
-1.6000867 -1.15922 2.723 6041431
-1.8081477 -1.8752714 4.4050002 6126493
-1.8234544 -1.899963 4.4630003 6192286
-1.8149534 -1.899963 4.4630003 6717349
-0.50894386 -2.2524545 5.2910004 8617086
-0.49886572 -2.2524545 5.2910004 8680352
0.25305712 -2.2179716 5.21 8424611
0.26298097 -2.2179716 5.21 7375219
0.1711819 -0.78884858 1.853 8819895
0.17471144 -0.78884858 1.853 806
0.20547333 -0.77182001 1.8130001 13690879
0.20892668 -0.77182001 1.8130001 14740735
0.21238001 -0.77182001 1.8130001 14674943
0.21583335 -0.77182001 1.8130001 15266303
0.21928667 -0.77182001 1.8130001 15134718
0.22274001 -0.77182001 1.8130001 12502235
0.22619334 -0.77182001 1.8130001 22
0.22964668 -0.77182001 1.8130001 71680
0.64169341 -1.9250801 4.5220003 12374783
0.6503067 -1.9250801 4.5220003 12111614
0.65032291 -1.899963 4.4630003 12045823
0.65882385 -1.899963 4.4630003 11980030
0.66732478 -1.899963 4.4630003 11980026
0.67582577 -1.899963 4.4630003 11980026
0.67543334 -1.8752714 4.4050002 11782908
0.68382382 -1.8752714 4.4050002 11651322
0.69221431 -1.8752714 4.4050002 11847926
0.70982957 -1.899963 4.4630003 11847926
0.71833056 -1.899963 4.4630003 11454195
0.73644 -1.9250801 4.5220003 11256816
0.75493908 -1.9506229 4.5820003 10732789
0.76366669 -1.9506229 4.5820003 10338031
0.7936343 -2.0042629 4.7080002 10534644
0.80260193 -2.0042629 4.7080002 10666230
0.80070955 -1.977443 4.6450005 10797296
0.79857719 -1.9506229 4.5820003 10863089
0.8073048 -1.9506229 4.5820003 10601457
0.81603241 -1.9506229 4.5820003 10140906
0.82476002 -1.9506229 4.5820003 10074607
0.82257342 -1.9250801 4.5220003 10206193
0.83118671 -1.9250801 4.5220003 10468590
0.8398 -1.9250801 4.5220003 10468590
0.87149054 -1.977443 4.6450005 10468842
0.89227813 -2.0042629 4.7080002 10534635
0.90124577 -2.0042629 4.7080002 10731244
0.91021335 -2.0042629 4.7080002 10797037
0.90688103 -1.977443 4.6450005 10862060
0.91572863 -1.977443 4.6450005 10730474
0.93711621 -2.0042629 4.7080002 10599406
0.93342388 -1.977443 4.6450005 10862578
0.92949146 -1.9506229 4.5820003 11321069
0.93821913 -1.9506229 4.5820003 8689349
0.94694674 -1.9506229 4.5820003 7573411
1.0393115 -2.1213343 4.9830003 9481408
1.0488029 -2.1213343 4.9830003 10400200
1.0737981 -2.1524115 5.0560002 10268614
1.0834286 -2.1524115 5.0560002 10333894
1.0930591 -2.1524115 5.0560002 10333894
1.1026896 -2.1524115 5.0560002 10399430
1.1123201 -2.1524115 5.0560002 10399430
1.1219505 -2.1524115 5.0560002 10333637
1.1315809 -2.1524115 5.0560002 10333637
1.1247343 -2.1213343 4.9830003 10268103
1.1342257 -2.1213343 4.9830003 10202310
1.1437172 -2.1213343 4.9830003 10267844
1.1532086 -2.1213343 4.9830003 10267844
1.1627001 -2.1213343 4.9830003 10202310
1.1721914 -2.1213343 4.9830003 10202310
1.1989944 -2.1524115 5.0560002 10136519
1.2086247 -2.1524115 5.0560002 10136519
1.2182553 -2.1524115 5.0560002 10070726
1.2278857 -2.1524115 5.0560002 10070726
1.2375163 -2.1524115 5.0560002 10070722
1.2471467 -2.1524115 5.0560002 10070722
1.2386315 -2.1213343 4.9830003 9940160
1.2481229 -2.1213343 4.9830003 9940160
1.2576144 -2.1213343 4.9830003 9939651
1.2671057 -2.1213343 4.9830003 9873858
1.2765973 -2.1213343 4.9830003 10004672
0.48270667 -0.75181144 1.766 5792889
0.48607048 -0.75181144 1.766 5399172
0.48694003 -0.74798 1.7570001 6057102
0.49028668 -0.74798 1.7570001 6254490
0.49110478 -0.74414855 1.748 6451869
0.4944343 -0.74414855 1.748 6320803
0.49776378 -0.74414855 1.748 6715561
0.50109333 -0.74414855 1.748 6453677
0.50442284 -0.74414855 1.748 6848435
0.5051381 -0.74031717 1.7390001 6717367
0.50845051 -0.74031717 1.7390001 7112125
0.51441145 -0.74414855 1.748 6981313
-1.6000867 -1.1540333 2.723 6041431
-1.9843478 -1.866881 4.4050002 6712712
-1.8149534 -1.8914621 4.4630003 6717349
-1.6131048 -2.142781 5.0560002 3890578
-0.5066914 -2.2775524 5.3740001 7761826
-0.48878765 -2.2423763 5.2910004 7367068
-0.47138095 -2.2080476 5.21 6909564
-0.46145713 -2.2080476 5.21 4212051
0.62446672 -1.9164668 4.5220003 11849214
0.63308007 -1.9164668 4.5220003 12243967
0.64169341 -1.9164668 4.5220003 12571391
1.2581515 -2.0813286 4.9110003 9938625
1.2675058 -2.0813286 4.9110003 10004418
0.48205718 -0.75268579 1.7760001 9279922
0.48270667 -0.7484476 1.766 5529721
0.51441145 -0.74081904 1.748 6981059
0.51774096 -0.74081904 1.748 8033747
0.52107048 -0.74081904 1.748 7837145
0.52170002 -0.73700482 1.7390001 8758247
0.52501237 -0.73700482 1.7390001 8692972
0.52832478 -0.73700482 1.7390001 9285109
0.53163719 -0.73700482 1.7390001 9285620
0.53494954 -0.73700482 1.7390001 9746171
0.53826195 -0.73700482 1.7390001 10271999
0.5415743 -0.73700482 1.7390001 10271999
0.54488671 -0.73700482 1.7390001 10729979
0.55103618 -0.74081904 1.748 9282533
0.55436569 -0.74081904 1.748 9083578
1.5909429 -2.0520856 4.842 9412022
1.6001656 -2.0520856 4.842 9412022
1.6323229 -2.0813286 4.9110003 9412022
1.6416773 -2.0813286 4.9110003 9412022
1.6510315 -2.0813286 4.9110003 9608374
1.6603857 -2.0813286 4.9110003 9608374
1.6942202 -2.1118429 4.9830003 9346481
1.7037115 -2.1118429 4.9830003 9346481
1.713203 -2.1118429 4.9830003 9411504
1.7226944 -2.1118429 4.9830003 9411504
1.7321857 -2.1118429 4.9830003 9411247
1.7416773 -2.1118429 4.9830003 9411247
1.7511686 -2.1118429 4.9830003 9411497
1.7606601 -2.1118429 4.9830003 8950946
1.7701515 -2.1118429 4.9830003 9147053
1.7796429 -2.1118429 4.9830003 8752295
1.7891344 -2.1118429 4.9830003 8487817
1.7986258 -2.1118429 4.9830003 6711406
-1.5871592 -1.1395649 2.7010002 6303065
-1.5854276 -1.882961 4.4630003 7178411
-1.5977734 -1.9078534 4.5220003 6389154
-1.6227353 -2.1331506 5.0560002 3234163
-1.6131048 -2.1331506 5.0560002 3823747
0.61631912 -1.882961 4.4630003 11586299
1.5595067 -2.0141733 4.7740002 9543090
1.5686001 -2.0141733 4.7740002 9412022
1.7986258 -2.1023517 4.9830003 6646126
1.8081172 -2.1023517 4.9830003 6908004
1.319581 -1.1307048 2.6800001 132200
1.3246857 -1.1307048 2.6800001 96
-1.5871592 -1.13442 2.7010002 5844052
-1.5769267 -1.8744601 4.4630003 7636892
-1.6227353 -2.1235201 5.0560002 5006196
1.3093715 -1.1256 2.6800001 8423069
1.3144763 -1.1256 2.6800001 9212585
1.319581 -1.1256 2.6800001 9606046
1.3246857 -1.1256 2.6800001 5263708
-1.5871592 -1.1292753 2.7010002 5909845
-1.5684259 -1.865959 4.4630003 7043222
0.22619334 -0.75800669 1.8130001 285
1.3144867 -1.1292753 2.7010002 10726857
1.3093715 -1.1204952 2.6800001 10726598
1.3044201 -1.1033534 2.6390002 6183830
1.2990267 -1.0945734 2.618 2893153
1.3040133 -1.0945734 2.618 65590
-1.5748191 -1.1153905 2.6800001 5976145
-1.5684259 -1.8574582 4.4630003 5270416
-1.5599248 -1.8574582 4.4630003 6518672
-1.646763 -2.0738771 4.9830003 4020095
-1.6372715 -2.0738771 4.9830003 4480646
-1.6277801 -2.0738771 4.9830003 5136251
-1.6182886 -2.0738771 4.9830003 5136251
-1.6323658 -2.1042593 5.0560002 4676730
0.17565428 -0.77536291 1.863 1835
1.2860886 -2.0738771 4.9830003 9807041
1.2940514 -1.0812629 2.598 49
-1.5748191 -1.1102858 2.6800001 6041431
-1.5599248 -1.8489573 4.4630003 3758187
-1.6001656 -2.0059714 4.842 5793937
0.23683526 -2.1919858 5.2910004 3425370
0.24691336 -2.1919858 5.2910004 66877
0.17210571 -0.77181429 1.863 2771553
0.17565428 -0.77181429 1.863 2336
1.7726371 -2.0345573 4.9110003 6973808
1.3042667 -1.1102858 2.6800001 13095662
1.2940514 -1.0763143 2.598 51
-1.5748191 -1.105181 2.6800001 5975638
1.7477314 -1.9967484 4.842 6776949
1.7569543 -1.9967484 4.842 7104613
1.309342 -1.1138411 2.7010002 13424877
1.3144867 -1.1138411 2.7010002 12701154
1.2940514 -1.0713658 2.598 64
-1.5624791 -1.0914562 2.6590002 5975384
1.2991619 -1.1000762 2.6800001 13228018
1.2940514 -1.0664172 2.598 37
-1.5624791 -1.0863914 2.6590002 5975638
1.3041972 -1.1035515 2.7010002 12704756
1.2991619 -1.0949714 2.6800001 13359602
1.3244354 -1.0863914 2.6590002 52
-1.5624791 -1.0813267 2.6590002 6041431
1.3041972 -1.0984068 2.7010002 12638973
1.3193706 -1.0813267 2.6590002 31
-1.5624791 -1.076262 2.6590002 6302300
2.0982001 -1.9598572 4.842 4345709
2.1074228 -1.9598572 4.842 4672607
1.2889524 -1.0847619 2.6800001 11913441
1.2940571 -1.0847619 2.6800001 13295094
1.3297905 -1.0847619 2.6800001 31
-1.5624791 -1.0711972 2.6590002 6041431
2.0687335 -1.9232401 4.7740002 4345961
2.0778267 -1.9232401 4.7740002 4672607
2.2101943 -2.0368457 5.0560002 1251371
2.2198248 -2.0368457 5.0560002 856070
2.2629678 -2.0674629 5.1320004 1119242
2.272743 -2.0674629 5.1320004 1183245
2.2825184 -2.0674629 5.1320004 1249038
1.3297905 -1.0796572 2.6800001 9
-1.5624791 -1.0661324 2.6590002 6237272
2.0596399 -1.9141468 4.7740002 4541795
2.0687335 -1.9141468 4.7740002 4541795
1.3297905 -1.0745524 2.6800001 31
-1.5624791 -1.0610677 2.6590002 6237272
-1.7898411 -1.5399249 3.8590002 8691141
0.17565428 -0.74342567 1.863 1975087
0.17920287 -0.74342567 1.863 2040628
1.3297905 -1.0694476 2.6800001 65795
-1.5624791 -1.056003 2.6590002 6237272
0.16946192 -0.74384862 1.8730001 1974585
0.17302954 -0.74384862 1.8730001 2041130
0.17565428 -0.73987716 1.863 2041130
1.3297905 -1.0643429 2.6800001 983304
-1.5624791 -1.0509381 2.6590002 6237272
0.16855714 -0.7363286 1.863 1975089
2.0596399 -1.8868667 4.7740002 3951716
1.3297905 -1.0592382 2.6800001 3277824
-1.5624791 -1.0458734 2.6590002 6170968
2.0232668 -1.8777734 4.7740002 6318717
2.0323601 -1.8777734 4.7740002 4542306
2.0414534 -1.8777734 4.7740002 3886194
2.0505466 -1.8777734 4.7740002 3886194
2.0596399 -1.8777734 4.7740002 3951973
1.329921 -1.0623934 2.7010002 9008776
-1.5624791 -1.0408087 2.6590002 6105686
1.5855515 -1.9223058 4.9110003 9477049
1.329921 -1.0572486 2.7010002 8547205
-1.5624791 -1.0357438 2.6590002 6105173
1.2991619 -1.0439237 2.6800001 12766436
1.329921 -1.0521039 2.7010002 7822214
-1.5624791 -1.0306791 2.6590002 5843798
-1.6487286 -1.707462 4.4050002 6717351
1.2692333 -1.0229268 2.6390002 13425897
1.2742602 -1.0229268 2.6390002 12833760
1.2792867 -1.0229268 2.6390002 12898026
1.329921 -1.0469592 2.7010002 7493479
1.3350658 -1.0469592 2.7010002 2953762
-1.5624791 -1.0256143 2.6590002 5843798
1.2591801 -1.0179 2.6390002 6848935
1.2642068 -1.0179 2.6390002 10204378
1.2692333 -1.0179 2.6390002 11649463
1.3350658 -1.0418143 2.7010002 3411260
-1.5624791 -1.0205495 2.6590002 6302554
2.090683 -1.8848886 4.9110003 3884626
2.0705316 -1.8584057 4.842 3228504
1.3246857 -1.0286095 2.6800001 3346212
-1.5624791 -1.0154848 2.6590002 6039382
2.1118429 -1.9030315 4.9830003 5528913
2.090683 -1.8755344 4.9110003 3686709
1.2383344 -1.0154848 2.6590002 4148612
1.2433991 -1.0154848 2.6590002 5530265
1.2390734 -1.0078467 2.6390002 5529484
1.2441001 -1.0078467 2.6390002 3489901
1.2491268 -1.0078467 2.6390002 471388
1.2441733 -0.99982667 2.618 4484761
1.2491601 -0.99982667 2.618 8361663
1.3143058 -1.0154848 2.6590002 3998803
-1.5624791 -1.0104201 2.6590002 6105425
2.1235201 -1.9212801 5.0560002 3426152
2.1023517 -1.8935401 4.9830003 4610426
2.1118429 -1.8935401 4.9830003 5067617
1.3143058 -1.0104201 2.6590002 4064830
-1.5624791 -1.0053552 2.6590002 4924751
0.13520001 -0.82576001 2.184 990271
0.13936 -0.82576001 2.184 1253443
1.3143058 -1.0053552 2.6590002 4260685
-1.5748191 -1.0081904 2.6800001 4008277
0.14352 -0.82159996 2.184 1253660
0.14862669 -0.82686675 2.1980002 1648418
0.15281335 -0.82686675 2.1980002 1583409
2.1074228 -1.8215142 4.842 8688812
2.1258686 -1.8215142 4.842 8818866
1.3246857 -1.0081904 2.6800001 3998505
-1.5748191 -1.0030857 2.6800001 6052472
1.1782001 -1.1266 3.0100002 12241877
1.1839335 -1.1266 3.0100002 12437466
1.2110096 -1.1468115 3.0640001 12766431
1.3246857 -1.0030857 2.6800001 2818862
0.20280001 -2.0332 5.46 7698826
1.2110096 -1.1409752 3.0640001 12897504
1.2390858 -1.1618286 3.1200001 12895948
2.0960133 -1.7777467 4.7740002 7372449
2.1051066 -1.7777467 4.7740002 5925003
1.3246857 -0.99798095 2.6800001 2820100
-1.6102457 -1.6975219 4.5820003 5730456
1.26352 -1.3248229 3.5760002 6712181
1.2703314 -1.3248229 3.5760002 6776931
1.2390858 -1.1558857 3.1200001 12567242
1.2681733 -1.1773734 3.1780002 3750980
2.0849981 -1.8731277 5.0560002 328715
2.0643859 -1.8460829 4.9830003 131336
2.0738771 -1.8460829 4.9830003 1292
2.0833685 -1.8460829 4.9830003 4541266
2.0336399 -1.7938457 4.842 5198953
1.319581 -0.99287617 2.6800001 1310997
0.2236 -2.0123999 5.46 9605267
0.24833906 -2.0448344 5.5480003 8752286
1.2443992 -1.2911059 3.5030003 6514277
1.2639287 -1.3043745 3.5390003 6777449
1.2130105 -0.98003149 2.6590002 198656
1.2089134 -0.97266006 2.6390002 263699
1.21394 -0.97266006 2.6390002 1842731
1.2189667 -0.97266006 2.6390002 1318984
1.319581 -0.98777145 2.6800001 1049088
1.2385715 -1.2716 3.4680002 6909037
1.220403 -1.2463001 3.3990002 6909287
1.2268772 -1.2463001 3.3990002 7369838
1.3247763 -0.99036676 2.7010002 65795
1.2268772 -1.2398257 3.3990002 7435129
1.3196316 -0.98522192 2.7010002 9541280
1.1558857 -1.1321144 3.1200001 987690
1.1526476 -1.1117944 3.0640001 3095896
1.2863334 -1.1531601 3.1780002 525853
1.3196316 -0.98007721 2.7010002 9276833
-1.8115516 -1.2644162 3.5030003 7371414
1.135139 -1.1059582 3.0640001 922401
1.1409752 -1.1059582 3.0640001 1777710
1.3093715 -0.96735239 2.6800001 8683922
1.3144763 -0.96735239 2.6800001 65551
0.16118668 -0.78918672 2.1980002 3419964
1.1380572 -1.1202285 3.1200001 3093575
1.3144763 -0.96224767 2.6800001 6
1.1701562 -1.0942857 3.0640001 134960
1.3144763 -0.95714283 2.6800001 14
-1.5356467 -0.93747336 2.6390002 726562
1.3144763 -0.95203811 2.6800001 25
-1.5507267 -0.93244672 2.6390002 1910318
-1.5406735 -0.93244672 2.6390002 1644600
-1.5356467 -0.93244672 2.6390002 1251614
-1.5105134 -0.93244672 2.6390002 6637099
-1.4820971 -0.91796005 2.598 5585723
1.3144763 -0.94693333 2.6800001 14
-1.5507267 -0.92742008 2.6390002 2829880
-1.4984933 -0.92004001 2.618 5653049
1.3144763 -0.94182861 2.6800001 46
1.329921 -0.94920862 2.7010002 4
-1.5507267 -0.92239338 2.6390002 3288880
1.329921 -0.9440639 2.7010002 2
-1.5507267 -0.91736668 2.6390002 4606273
1.329921 -0.93891907 2.7010002 2
-1.5624791 -0.9192543 2.6590002 4672586
-1.5624791 -0.91418958 2.6590002 4540748
-1.5624791 -0.90912479 2.6590002 4541250
1.3144867 -0.9234848 2.7010002 3883084
-1.5624791 -0.90406007 2.6590002 4475457
0.18020001 -0.75683999 2.2260001 2107704
-1.5624791 -0.89899528 2.6590002 4934475
1.309342 -0.91319531 2.7010002 12369865
-1.5624791 -0.89393055 2.6590002 4802637
1.309342 -0.90805054 2.7010002 12171455
-1.5624791 -0.88886577 2.6590002 4738379
0.5156486 -0.60940289 1.8230001 6714773
1.309342 -0.90290576 2.7010002 11711415
-1.5507267 -0.8771534 2.6390002 4736844
1.309342 -0.89776099 2.7010002 10921127
1.3144867 -0.89776099 2.7010002 328454
-1.5507267 -0.8721267 2.6390002 4672586
1.3042667 -0.88567621 2.6800001 272
-1.5507267 -0.86710006 2.6390002 4802889
1.3042667 -0.88057142 2.6800001 196638
-1.567544 -0.86860669 2.6590002 4802889
-1.5507267 -0.86207336 2.6390002 4868682
1.3042667 -0.8754667 2.6800001 22
1.3093715 -0.8754667 2.6800001 9
-1.567544 -0.86354196 2.6590002 4671303
1.3093715 -0.87036192 2.6800001 9
-1.567544 -0.85847718 2.6590002 4671303
1.3093715 -0.86525714 2.6800001 9
-1.5557535 -0.84699339 2.6390002 4343621
1.3196316 -0.86689246 2.7010002 9
-1.5557535 -0.84196669 2.6390002 4474174
1.3196316 -0.86174768 2.7010002 9
-1.567544 -0.84328294 2.6590002 4343101
-1.567544 -0.83821809 2.6590002 4212285
-1.567544 -0.83315337 2.6590002 4342588
1.3144867 -0.84631342 2.7010002 131167
-1.567544 -0.82808858 2.6590002 4342338
-0.15187715 -1.2734314 4.0890002 16449533
1.3144867 -0.84116858 2.7010002 65603
-1.567544 -0.82302386 2.6590002 4342338
1.3144867 -0.83602387 2.7010002 84
-1.567544 -0.81795907 2.6590002 4408131
1.3144867 -0.83087915 2.7010002 55
-1.567544 -0.81289434 2.6590002 4342338
1.3042667 -0.8193143 2.6800001 56
-1.5557535 -0.8017534 2.6390002 4670783
1.3042667 -0.81420958 2.6800001 52
-1.5557535 -0.7967267 2.6390002 4999223
-1.5433733 -0.78539997 2.618 4933430
-1.5433733 -0.78041333 2.618 2039583
-1.5383867 -0.78041333 2.618 2171169
-1.4474572 -0.77445143 2.598 4279116
-1.5383867 -0.77542669 2.618 2372141
-1.5105573 -0.76387531 2.5790002 3223857
0.095400006 -0.65932 2.2260001 14669009
1.2940571 -0.79379052 2.6800001 594726
-1.5105573 -0.75896293 2.5790002 7963022
-1.5056449 -0.75896293 2.5790002 7963022
-1.5007325 -0.75896293 2.5790002 7962768
1.2940571 -0.78868568 2.6800001 1515835
-1.4786201 -0.74294001 2.5410001 8227232
-1.4221344 -0.75405049 2.5790002 8095639
-1.4460334 -0.72183335 2.4850001 9346490
1.2889524 -0.77847618 2.6800001 8754383
-1.4460334 -0.71710002 2.4850001 8952762
0.11856 -0.63024002 2.184 138509
1.2990525 -0.77943152 2.7010002 10069703
1.2940571 -0.77337146 2.6800001 8556464
1.299 -0.74970859 2.598 7109279
1.3385143 -0.73874289 2.5600002 4806260
1.3433905 -0.73874289 2.5600002 5201018
1.3325495 -0.72229427 2.503 8291754
1.3373171 -0.72229427 2.503 7306404
1.3179002 -0.69690007 2.4150002 3885921
1.3225001 -0.69690007 2.4150002 5793918
1.3655667 -0.71710002 2.4850001 7435663
1.3703001 -0.71710002 2.4850001 7830421
0.11856 -0.62608004 2.184 4141474
1.2940571 -0.76826668 2.6800001 11451864
1.2792867 -0.75651336 2.6390002 11385560
1.299 -0.74475998 2.598 10398668
1.3139867 -0.75049335 2.618 10201289
1.3088971 -0.74475998 2.598 10003660
1.3138458 -0.74475998 2.598 9674695
1.33342 -0.72842008 2.5410001 7700651
1.3382601 -0.72842008 2.5410001 7437990
1.3373171 -0.71752667 2.503 6912159
1.3227819 -0.70720667 2.467 6977952
1.3183333 -0.70233333 2.45 6780825
1.323 -0.70233333 2.45 6451860
1.3276666 -0.70233333 2.45 6648469
1.3317001 -0.69230002 2.4150002 5661569
1.3138458 -0.73981142 2.598 10596826
1.3091496 -0.73440105 2.5790002 10005459
1.314062 -0.73440105 2.5790002 9808080
1.3092573 -0.72899055 2.5600002 9807823
1.3141334 -0.72899055 2.5600002 9610444
1.3317001 -0.68770009 2.4150002 5136018
-1.3087287 -0.66443151 2.3490002 11914235
1.3223257 -0.67829144 2.398 6255544
1.3268933 -0.67829144 2.398 5201064
-1.3087287 -0.65995723 2.3490002 10865919
1.3268933 -0.67372376 2.398 7635632
1.3268933 -0.66915619 2.398 11253979
0.4986667 -0.52768004 1.904 13095929
0.50229335 -0.52768004 1.904 12964854
0.50591999 -0.52768004 1.904 13754367
1.3174868 -0.65987718 2.381 11057377
1.3174868 -0.65534192 2.381 11188965
1.3174868 -0.65080667 2.381 10926824
-2.0050507 -0.95081437 3.5030003 2117006
-1.9983782 -0.95081437 3.5030003 608101
1.3174868 -0.64627147 2.381 10466791
-1.9455229 -0.91611147 3.3990002 4018046
1.3174868 -0.64173621 2.381 10269417
-2.1256983 -0.97761244 3.6530001 6847878
-2.0961201 -0.96717525 3.6140001 5860983
-1.984601 -0.91873622 3.4330001 5860733
1.3174868 -0.63720095 2.381 12044535
-2.1167715 -0.96029145 3.6140001 5797002
-2.1098876 -0.96029145 3.6140001 5731209
-2.1256983 -0.97065431 3.6530001 5794692
1.3174868 -0.63266569 2.381 12965875
-2.1167715 -0.95340759 3.6140001 68132
1.04992 -0.50229335 1.904 16187390
-2.1396143 -0.95673811 3.6530001 305
1.04992 -0.4986667 1.904 15728125
-2.1167715 -0.93963999 3.6140001 5598340
1.0462934 -0.49504 1.904 15333882
-2.1167715 -0.93275625 3.6140001 6913183
1.0462934 -0.49141333 1.904 15268603
-2.0945144 -0.91613716 3.5760002 7702695
1.0523381 -0.49060476 1.9150001 15399675
-2.0945144 -0.90932578 3.5760002 7113131
1.0462934 -0.48416001 1.904 15006203
-2.0728428 -0.89317626 3.5390003 6915239
1.0462934 -0.48053333 1.904 15071737
-2.0728428 -0.88643533 3.5390003 6849448
-0.33653146 -0.30207428 1.2060001 11250085
1.0462934 -0.47690669 1.904 14677499
-2.0728428 -0.87969434 3.5390003 6915241
1.0462934 -0.47327998 1.904 14808313
-2.0728428 -0.87295341 3.5390003 6849194
1.0523381 -0.47236669 1.9150001 14413816
-2.0728428 -0.86621243 3.5390003 6849707
1.0523381 -0.46871907 1.9150001 14413305
-2.0945144 -0.8684572 3.5760002 6981034
1.0523381 -0.46507144 1.9150001 13887481
-2.0945144 -0.86164576 3.5760002 6915500
1.0523381 -0.46142381 1.9150001 13952761
-2.0945144 -0.85483432 3.5760002 6915498
1.0523381 -0.45777619 1.9150001 13492730
-2.0945144 -0.84802294 3.5760002 7046314
1.0523381 -0.45412859 1.9150001 13360887
1.0620514 -0.45673716 1.9260001 13360887
-2.0945144 -0.84121144 3.5760002 6915241
1.0620514 -0.45306858 1.9260001 13295100
-2.1013258 -0.83440006 3.5760002 7506606
-2.0945144 -0.83440006 3.5760002 7112361
1.0620514 -0.44940001 1.9260001 14281980
-2.0795841 -0.81902575 3.5390003 7506604
1.0620514 -0.44573146 1.9260001 13822460
-2.0795841 -0.81228483 3.5390003 7571881
1.0620514 -0.44206285 1.9260001 12966909
-2.0795841 -0.80554384 3.5390003 7375531
1.0620514 -0.43839431 1.9260001 12309243
-2.0795841 -0.79880291 3.5390003 7309229
1.0638781 -0.43698287 1.9360001 13031935
-2.1013258 -0.80034292 3.5760002 7309740
1.0638781 -0.43329525 1.9360001 12834815
-2.1236553 -0.80196381 3.6140001 7375020
1.0638781 -0.42960763 1.9360001 11585279
-2.1236553 -0.79508001 3.6140001 7375018
1.0638781 -0.42592004 1.9360001 9545948
-2.1236553 -0.78819621 3.6140001 7769514
1.0699229 -0.42463145 1.9470001 804478
1.1056143 -0.43728095 2.0050001 804478
-2.1236553 -0.78131235 3.6140001 7572651
1.1056143 -0.43346193 2.0050001 2769789
-2.1236553 -0.77442861 3.6140001 7440811
1.1249144 -0.43714288 2.0400002 4674954
-2.1236553 -0.76754475 3.6140001 7834283
1.1320829 -0.43601814 2.0530002 4937869
-2.1236553 -0.76066095 3.6140001 7702695
1.1320829 -0.43210766 2.0530002 5134987
-2.1013258 -0.74585146 3.5760002 7375270
1.1320829 -0.42819721 2.0530002 5135253
-2.1013258 -0.73904008 3.5760002 7309225
1.1320829 -0.42428669 2.0530002 5464733
-2.1013258 -0.73222858 3.5760002 7440038
1.1320829 -0.42037624 2.0530002 5530531
-2.1013258 -0.7254172 3.5760002 7243686
1.1387 -0.41889998 2.0650001 6056875
-2.1013258 -0.71860576 3.5760002 7178144
1.1387 -0.4149667 2.0650001 6056875
-2.1236553 -0.71935809 3.6140001 7439523
1.1387 -0.41103336 2.0650001 6452144
-2.1236553 -0.71247429 3.6140001 7308450
1.1387 -0.40710002 2.0650001 6387382
-2.1236553 -0.70559049 3.6140001 7308450
1.1387 -0.40316668 2.0650001 6453436
-2.1236553 -0.69870669 3.6140001 7111071
1.1387 -0.39923334 2.0650001 6518975
-2.1236553 -0.69182283 3.6140001 7044765
1.1387 -0.3953 2.0650001 6979267
-2.1465726 -0.69233048 3.6530001 7044765
1.1387 -0.39136666 2.0650001 6848453
-2.1236553 -0.67805523 3.6140001 6979223
1.1387 -0.38743335 2.0650001 7045321
-2.1236553 -0.67117149 3.6140001 7045270
1.1387 -0.38350001 2.0650001 7242187
-2.1236553 -0.66428763 3.6140001 6979477
1.1387 -0.37956667 2.0650001 7636945
-2.1465726 -0.66449809 3.6530001 6913941
1.1387 -0.37563333 2.0650001 7506133
-2.1465726 -0.65753996 3.6530001 6848148
1.1387 -0.37169999 2.0650001 7900378
-2.1236553 -0.64363617 3.6140001 6848148
1.1387 -0.36776665 2.0650001 7834072
-2.1236553 -0.63675243 3.6140001 7044755
1.1387 -0.36383334 2.0650001 8294364
-2.1236553 -0.62986857 3.6140001 6782096
1.1387 -0.35990003 2.0650001 8294366
-2.1236553 -0.62298477 3.6140001 6979475
1.1387 -0.35596669 2.0650001 8492256
-2.1236553 -0.61610097 3.6140001 6913682
1.1387 -0.35203335 2.0650001 8492256
-2.1013258 -0.60281146 3.5760002 6846865
1.1387 -0.34810001 2.0650001 8886501
-2.1013258 -0.59600002 3.5760002 6715792
1.1387 -0.34416667 2.0650001 8820967
-2.1013258 -0.58918858 3.5760002 6715533
1.1387 -0.34023333 2.0650001 9084139
-2.1236553 -0.58856571 3.6140001 6715533
1.1458685 -0.33841714 2.0780001 9149675
-2.1465726 -0.58795905 3.6530001 6649738
1.1458685 -0.33445904 2.0780001 9478640
-2.1465726 -0.58100098 3.6530001 6715279
1.1458685 -0.33050096 2.0780001 9478388
-2.1465726 -0.57404286 3.6530001 7174796
1.1458685 -0.32654288 2.0780001 9807359
-2.1465726 -0.56708479 3.6530001 7043210
1.1458685 -0.32258478 2.0780001 9544442
-2.1465726 -0.56012666 3.6530001 7173486
1.1419104 -0.31862667 2.0780001 9938941
-2.1465726 -0.55316859 3.6530001 5200736
1.1419104 -0.31466857 2.0780001 9742591
-2.1465726 -0.54621047 3.6530001 513
1.1419104 -0.31071049 2.0780001 9808383
-2.1694896 -0.54500955 3.6920002 259
-2.1554248 -0.54500955 3.6920002 259
-2.1483924 -0.54500955 3.6920002 259
1.1419104 -0.30675238 2.0780001 9742591
-2.1483924 -0.53797716 3.6920002 131854
-2.0561173 -0.53229427 3.6530001 66311
-2.0491593 -0.53229427 3.6530001 518
1.1419104 -0.30279431 2.0780001 10136831
-2.0491593 -0.52533621 3.6530001 66311
1.1485049 -0.30056193 2.0900002 10202879
-2.0491593 -0.51837808 3.6530001 197647
1.1485049 -0.29658097 2.0900002 10334463
-2.0491593 -0.51142001 3.6530001 264469
-1.9859791 -0.50595999 3.6140001 395791
-1.9865361 -0.51142001 3.6530001 329998
1.1485049 -0.29260001 2.0900002 10399999
-1.958704 -0.50446188 3.6530001 329998
1.1485049 -0.28861907 2.0900002 10399999
-1.958704 -0.49750382 3.6530001 461584
1.1556487 -0.2864086 2.1030002 10399999
-1.958704 -0.49054572 3.6530001 658963
1.1556487 -0.28240287 2.1030002 10466047
1.1556487 -0.27839714 2.1030002 10466303
-1.9037944 -0.46658286 3.5760002 659477
1.1556487 -0.27439144 2.1030002 10531839
-1.9037944 -0.45977145 3.5760002 725022
1.1556487 -0.27038574 2.1030002 10466303
1.1556487 -0.26638004 2.1030002 10400511
1.1556487 -0.26237428 2.1030002 10399999
1.1556487 -0.25836858 2.1030002 10334719
-1.7317144 -0.39914289 3.3000002 659229
1.1556487 -0.25436288 2.1030002 10203391
1.1556487 -0.25035718 2.1030002 10531839
1.1556487 -0.24635144 2.1030002 10532351
-1.7978716 -0.38777623 3.3650002 658963
1.1627924 -0.24384382 2.1160002 10466815
-1.7978716 -0.3813667 3.3650002 658963
1.1627924 -0.23981334 2.1160002 10401023
-1.8095629 -0.37874573 3.3990002 593170
1.1627924 -0.23578288 2.1160002 10466303
1.1627924 -0.23175241 2.1160002 10269439
1.1627924 -0.22772191 2.1160002 10532351
-1.7590333 -0.34558001 3.2690001 461584
1.1627924 -0.22369145 2.1160002 10138111
1.1627924 -0.21966097 2.1160002 10335743
1.1627924 -0.21563049 2.1160002 9875967
1.1627924 -0.21160002 2.1160002 10203903
1.1627924 -0.20756954 2.1160002 10138111
1.1627924 -0.20353906 2.1160002 10203903
-1.4451734 -0.25872001 2.7440002 198410
1.1627924 -0.19950859 2.1160002 9875967
1.1627924 -0.19547811 2.1160002 10203903
-1.4730982 -0.25034764 2.7670002 197897
1.1627924 -0.19144763 2.1160002 10072319
-1.4730982 -0.24507716 2.7670002 198403
1.1627924 -0.18741715 2.1160002 10138111
-1.4848105 -0.24171333 2.789 198403
1.1627924 -0.18338668 2.1160002 10204159
-1.5184801 -0.23835048 2.812 197897
1.1699363 -0.18045811 2.1290002 10335487
-1.7534554 -0.24724574 2.9840002 198403
-1.5078934 -0.22736001 2.7440002 197897
1.1699363 -0.17640288 2.1290002 9875455
-1.7534554 -0.24156192 2.9840002 197897
-1.5119133 -0.22043334 2.723 132104
-1.5067266 -0.22043334 2.723 132104
1.1699363 -0.17234764 2.1290002 10006271
-1.7534554 -0.23587811 2.9840002 197897
-1.675562 -0.22987048 2.9080002 197897
-1.5171001 -0.21524666 2.723 132104
-1.5119133 -0.21524666 2.723 132104
1.1699363 -0.16829239 2.1290002 9940479
-1.7534554 -0.23019429 2.9840002 197897
-1.5222867 -0.21006 2.723 66311
-1.5171001 -0.21006 2.723 66311
1.1699363 -0.16423716 2.1290002 10072063
-1.7234867 -0.22067334 2.9330001 197897
-1.6811011 -0.21879241 2.9080002 197897
-1.675562 -0.21879241 2.9080002 197897
-1.6534059 -0.21879241 2.9080002 197897
-1.5392534 -0.20645335 2.7440002 66311
-1.5222867 -0.20487334 2.723 66311
1.1699363 -0.16018191 2.1290002 10072575
-1.7234867 -0.21508667 2.9330001 197897
-1.5392534 -0.20122667 2.7440002 66563
1.1699363 -0.15612668 2.1290002 10072319
-1.7290734 -0.2095 2.9330001 132867
-1.7234867 -0.2095 2.9330001 198660
-1.5444801 -0.19600001 2.7440002 772
-1.5392534 -0.19600001 2.7440002 66565
1.1699363 -0.15207145 2.1290002 10006013
-1.7290734 -0.20391335 2.9330001 198403
1.1776296 -0.14898953 2.1430001 9939967
-1.6995971 -0.19494572 2.8830001 132610
1.1776296 -0.14490764 2.1430001 9743613
-1.6995971 -0.18945429 2.8830001 197897
1.1847734 -0.14168 2.1560001 10072060
-1.6908944 -0.18243143 2.8590002 198410
-1.6854486 -0.18243143 2.8590002 198410
1.1847734 -0.13757335 2.1560001 9612025
-1.6908944 -0.17698573 2.8590002 198410
1.1847734 -0.13346668 2.1560001 9677561
-1.6908944 -0.17154002 2.8590002 197897
1.1847734 -0.12936001 2.1560001 9480439
-1.6630971 -0.1633638 2.812 197897
1.1847734 -0.12525333 2.1560001 9349107
-1.6630971 -0.15800762 2.812 197897
1.1847734 -0.12114667 2.1560001 8889583
-1.6494943 -0.15140286 2.789 132104
1.1847734 -0.11704 2.1560001 9217269
-1.6494943 -0.14609048 2.789 197897
-1.6441818 -0.14609048 2.789 197897
-1.6124268 -0.14373334 2.7440002 197897
1.1847734 -0.11293334 2.1560001 9151215
-1.6124268 -0.13850667 2.7440002 197906
1.1924667 -0.10953333 2.1700001 9347822
-1.6124268 -0.13328001 2.7440002 197897
-1.5949 -0.13225999 2.723 197897
1.1924667 -0.1054 2.1700001 9084904
-1.5820143 -0.12604667 2.7010002 132867
1.1924667 -0.10126667 2.1700001 9150436
-1.5820143 -0.12090191 2.7010002 198403
-1.5523496 -0.11902191 2.6590002 198403
1.1847734 -0.09650667 2.1560001 8690396
-1.5523496 -0.11395714 2.6590002 198403
1.1847734 -0.092399999 2.1560001 9018075
-1.5697143 -0.10975239 2.6800001 198403
-1.5523496 -0.10889239 2.6590002 198403
1.1847734 -0.088293336 2.1560001 8689110
-1.5574144 -0.10382763 2.6590002 197897
1.1847734 -0.084186666 2.1560001 8557270
-1.5574144 -0.098762862 2.6590002 197897
1.1847734 -0.080080003 2.1560001 8426454
-1.5507267 -0.092993334 2.6390002 197897
-1.5457001 -0.092993334 2.6390002 198660
1.1847734 -0.075973332 2.1560001 8491731
-1.5507267 -0.087966673 2.6390002 197897
1.1847734 -0.071866669 2.1560001 8229075
-1.5507267 -0.082940005 2.6390002 132367
1.1847734 -0.067759998 2.1560001 8163282
-1.5507267 -0.077913336 2.6390002 197647
-1.5457001 -0.077913336 2.6390002 197897
1.1847734 -0.063653335 2.1560001 8163282
-1.5457001 -0.072886668 2.6390002 197897
1.1924667 -0.059933335 2.1700001 8360145
-1.5457001 -0.067860007 2.6390002 197897
-1.5371553 -0.068374291 2.6590002 198160
1.1924667 -0.055800002 2.1700001 8164045
-1.5018915 -0.061857145 2.598 197897
1.1924667 -0.051666666 2.1700001 8229325
1.1924667 -0.047533337 2.1700001 8163791
-1.4627601 -0.050440002 2.5220001 198160
1.1924667 -0.043400001 2.1700001 8229327
-1.4627601 -0.045636192 2.5220001 198160
1.1924667 -0.039266668 2.1700001 8295118
-1.4460334 -0.040233336 2.4850001 197897
-1.4413 -0.040233336 2.4850001 197897
1.1924667 -0.035133332 2.1700001 8229325
-1.4303333 -0.035 2.45 197897
-1.4256667 -0.035 2.45 197897
1.1924667 -0.031000003 2.1700001 8031948
-1.4602334 -0.030766666 2.4850001 132867
-1.4555 -0.030766666 2.4850001 197897
-1.4303333 -0.030333333 2.45 197897
1.1924667 -0.026866667 2.1700001 7965903
-1.4649668 -0.026033334 2.4850001 197897
-1.4602334 -0.026033334 2.4850001 197897
1.1924667 -0.022733334 2.1700001 7834315
-1.4590542 -0.021145713 2.467 328965
-1.4543552 -0.021145713 2.467 132867
1.1924667 -0.0186 2.1700001 7702729
-1.4590542 -0.016446667 2.467 460551
1.1924667 -0.014466667 2.1700001 7571656
-1.4697001 -0.011833334 2.4850001 132358
1.1924667 -0.010333333 2.1700001 7571143
-1.4697001 -0.0071000005 2.4850001 198151
-1.4649668 -0.0071000005 2.4850001 197897
1.1924667 -0.0062000002 2.1700001 7571143
-1.4649668 -0.0023666667 2.4850001 198660
-1.4396666 -0.0023333333 2.45 198660
1.1924667 -0.0020666667 2.1700001 7505350
-1.4396666 0.0023333333 2.45 329483
-1.4244572 0.0023161906 2.4320002 264205
1.1924667 0.0020666667 2.1700001 7505350
-1.4145001 0.0069000009 2.4150002 329998
1.1924667 0.0062000002 2.1700001 7439559
-1.4145001 0.011500001 2.4150002 329998
1.1924667 0.010333333 2.1700001 7308232
-1.3999752 0.015986666 2.398 395791
1.1924667 0.014466667 2.1700001 7374023
-1.3758429 0.020134289 2.3490002 329998
-1.3713686 0.020134289 2.3490002 329998
1.1924667 0.0186 2.1700001 7374023
-1.3608772 0.024105715 2.3010001 66315
-1.3521115 0.024105715 2.3010001 329483
-1.3758429 0.024608573 2.3490002 329998
1.1924667 0.022733334 2.1700001 7505609
-1.3608772 0.028488573 2.3010001 263174
-1.3564943 0.028488573 2.3010001 197897
1.1924667 0.026866667 2.1700001 7374534
-1.3564943 0.032871433 2.3010001 264205
1.1924667 0.031000003 2.1700001 7505861
-1.3564943 0.037254285 2.3010001 264205
1.1924667 0.035133332 2.1700001 7506122
-1.3659267 0.041926667 2.3170002 264205
1.2001599 0.039520003 2.184 7833801
-1.3659267 0.04634 2.3170002 264205
-1.3615134 0.04634 2.3170002 395791
1.2078534 0.043960005 2.1980002 7701963
-1.3521115 0.050402861 2.3010001 395285
1.2001599 0.047840003 2.184 8161224
-1.3521115 0.054785714 2.3010001 395791
-1.3477286 0.054785714 2.3010001 461584
1.2001599 0.051999997 2.184 7766716
-1.3477286 0.059168573 2.3010001 527643
1.2001599 0.056160003 2.184 7765923
-1.3345885 0.063137144 2.286 724756
1.2001599 0.060319997 2.184 7173030
-1.3345885 0.067491427 2.286 659477
1.2001599 0.064479999 2.184 7239327
-1.3345885 0.071845718 2.286 529183
1.2001599 0.068640001 2.184 6121621
-1.2751201 0.071866669 2.1560001 922401
-1.2874001 0.07326667 2.1980002 792105
-1.2832135 0.07326667 2.1980002 792105
1.196 0.072800003 2.184 6252693
-1.2833334 0.075973332 2.1560001 856856
-1.2715135 0.075515248 2.1430001 726312
-1.2674315 0.075515248 2.1430001 660519
1.1918401 0.076959997 2.184 7305127
-1.2833334 0.080080003 2.1560001 923153
1.1842 0.080600001 2.1700001 7174035
-1.2833334 0.084186666 2.1560001 1249817
1.1842 0.084733337 2.1700001 6318225
-1.2755953 0.087760955 2.1430001 789516
1.1800667 0.088866673 2.1700001 6318759
-1.267262 0.091242865 2.1290002 329998
1.1800667 0.093000002 2.1700001 5397914
-1.267262 0.095298104 2.1290002 264205
1.1800667 0.097133338 2.1700001 5396369
-1.267262 0.099353336 2.1290002 264203
1.1800667 0.10126667 2.1700001 3949427
-1.2755953 0.10408857 2.1430001 132867
1.1800667 0.1054 2.1700001 3817818
-1.2755953 0.10817049 2.1430001 197897
1.1759334 0.10953333 2.1700001 6645897
-1.2755953 0.11225238 2.1430001 197897
1.17936 0.1144 2.184 6317732
-1.2755953 0.11633429 2.1430001 264203
1.18692 0.11932001 2.1980002 5462675
-1.2755953 0.12041619 2.1430001 527377
1.17936 0.12272 2.184 5462144
1.1835201 0.12272 2.184 4473944
-1.2755953 0.1244981 2.1430001 527377
1.1835201 0.12688001 2.184 1781838
-1.267262 0.12774001 2.1290002 461584
1.17936 0.13103999 2.184 2503276
-1.267262 0.13179524 2.1290002 461584
1.1827334 0.13606668 2.1980002 3093344
-1.267262 0.13585047 2.1290002 593170
1.1902667 0.14114667 2.2120001 1779498
-1.267262 0.13990572 2.1290002 461848
1.1594 0.14260001 2.1700001 1119274
-1.267262 0.14396097 2.1290002 396055
1.1594 0.14673334 2.1700001 1184565
-1.2595239 0.1471124 2.1160002 396055
1.1594 0.15086667 2.1700001 1118775
-1.2595239 0.15114287 2.1160002 330262
1.1519201 0.15400001 2.1560001 791354
-1.2517859 0.15422001 2.1030002 461584
1.1236029 0.15422001 2.1030002 856886
-1.2440478 0.15724763 2.0900002 461584
1.1236029 0.15822572 2.1030002 1316653
1.1276087 0.15822572 2.1030002 921895
-1.2440478 0.16122858 2.0900002 461584
1.1206381 0.16122858 2.0900002 921897
1.1246191 0.16122858 2.0900002 856104
-1.2369047 0.16426095 2.0780001 461584
1.1246191 0.16520953 2.0900002 659229
1.1151 0.16323334 2.0650001 659229
1.1190333 0.16323334 2.0650001 856608
-1.2291666 0.16716668 2.0650001 461584
1.1190333 0.16716668 2.0650001 657687
-1.2181715 0.16902858 2.0400002 329998
-1.2142859 0.16902858 2.0400002 461584
1.132581 0.17317145 2.0900002 460051
1.136562 0.17317145 2.0900002 525844
1.1405429 0.17317145 2.0900002 263965
-1.2181715 0.1729143 2.0400002 329998
1.1339943 0.17613524 2.0780001 198426
1.1445239 0.1771524 2.0900002 66840
-1.20384 0.17472 2.016 396041
1.1445239 0.18113334 2.0900002 197906
-1.20384 0.17856 2.016 461584
1.1445239 0.18511429 2.0900002 132367
-1.20384 0.1824 2.016 461584
1.1445239 0.18909526 2.0900002 395285
-1.20384 0.18624 2.016 461584
-1.1999999 0.18624 2.016 461584
1.1308333 0.19076668 2.0650001 330262
-1.1934525 0.18904287 2.0050001 330262
1.124262 0.19356859 2.0530002 460830
-1.1901058 0.19170763 1.9930001 396055
-1.1863096 0.19170763 1.9930001 330262
1.124262 0.19747907 2.0530002 461344
-1.18294 0.19432667 1.9810001 461584
1.124262 0.20138954 2.0530002 527667
-1.18294 0.1981 1.9810001 461848
1.124262 0.20530002 2.0530002 660006
-1.1763715 0.20075239 1.9700001 461848
1.1171429 0.20788573 2.0400002 856886
-1.1763715 0.20450477 1.9700001 461848
1.1171429 0.21177144 2.0400002 857143
-1.1698029 0.20709428 1.9590001 461848
1.1171429 0.21565716 2.0400002 988982
-1.1626371 0.2095343 1.9470001 461848
1.1171429 0.21954288 2.0400002 1381695
-1.1560687 0.2120381 1.9360001 461584
1.1040001 0.2208 2.016 1250890
-1.1560687 0.21572572 1.9360001 395791
1.1040001 0.22464001 2.016 1054526
-1.1500971 0.21828002 1.9260001 395791
1.0979763 0.22723335 2.0050001 1052982
-1.1435286 0.22068097 1.9150001 395791
1.0979763 0.23105238 2.0050001 857147
-1.1405866 0.22304 1.904 461584
-1.13696 0.22304 1.904 461584
1.0979763 0.23487145 2.0050001 988733
-1.1345962 0.22547619 1.8940001 461584
1.0979763 0.2386905 2.0050001 988733
-1.1345962 0.22908382 1.8940001 461584
1.0750571 0.2382762 1.9700001 1251903
-1.1345962 0.23269144 1.8940001 461584
1.0750571 0.24202859 1.9700001 1187144
-1.1345962 0.23629905 1.8940001 330262
1.0625058 0.24291144 1.9470001 1515343
-1.1280067 0.23851334 1.8830001 593170
1.0565028 0.24522667 1.9360001 1580359
-1.1280067 0.24210002 1.8830001 461584
1.0565028 0.2489143 1.9360001 1251903
-1.1220162 0.24438192 1.8730001 593170
1.0510458 0.25129718 1.9260001 1449282
-1.1160257 0.24662571 1.863 461834
1.0450429 0.25350952 1.9150001 1449282
-1.1160257 0.25017428 1.863 593170
1.0450429 0.25715715 1.9150001 1515324
-1.1100352 0.25236094 1.853 593170
1.0450429 0.26080477 1.9150001 1515324
-1.1100352 0.25589046 1.853 724756
1.0390401 0.26293334 1.904 1449282
-1.0980543 0.25662002 1.8330001 527643
1.022123 0.26222003 1.8730001 1515075
-1.0920638 0.25869238 1.8230001 593170
1.022123 0.26578763 1.8730001 1515075
-1.0860734 0.26072666 1.8130001 527377
1.022123 0.26935527 1.8730001 1515075
-1.0860734 0.26418 1.8130001 461584
1.022123 0.27292287 1.8730001 1251903
-1.0746914 0.26482856 1.794 593170
1.0166657 0.27501431 1.863 1186361
-1.0639087 0.26555431 1.7760001 593170
1.0112087 0.27706763 1.853 1187650
-1.0579181 0.26742285 1.766 593170
1.0112087 0.28059715 1.853 1253443
-1.0525267 0.26940668 1.7570001 593170
1.0057515 0.28259334 1.8430001 1450820
-1.0525267 0.27275336 1.7570001 593170
1.0057515 0.28610381 1.8430001 1516613
-1.0525267 0.27610004 1.7570001 593170
1.0002943 0.28804287 1.8330001 1779785
-1.0525267 0.27944666 1.7570001 461848
0.99483722 0.28994381 1.8230001 1779533
-1.0525267 0.28279334 1.7570001 330262
0.99483722 0.2934162 1.8230001 1779785
-1.0525267 0.28614002 1.7570001 330262
0.99483722 0.29688856 1.8230001 2042187
-1.0525267 0.28948668 1.7570001 461584
0.98938 0.29871336 1.8130001 2042187
-1.0504647 0.29133332 1.748 461584
-1.0471352 0.29133332 1.748 461584
0.9844687 0.30066669 1.8040001 2042187
-1.0450562 0.29314572 1.7390001 593170
0.9844687 0.30410287 1.8040001 2042187
-1.0450562 0.2964581 1.7390001 593170
0.9844687 0.30753905 1.8040001 2107980
-1.0402485 0.29839143 1.7310001 593170
0.9844687 0.31097525 1.8040001 2042187
-1.0402485 0.30168858 1.7310001 593170
0.97070003 0.31110004 1.7850001 1779785
-1.03484 0.30340001 1.7220001 593170
0.96580577 0.31291431 1.7760001 1779785
-1.0294315 0.30507717 1.7130001 461584
0.96036768 0.31451619 1.766 1713740
-1.0294315 0.30834001 1.7130001 329998
0.96036768 0.31788 1.766 1779785
-1.0246238 0.31014761 1.705 396041
0.95547336 0.31960666 1.7570001 2370115
-1.0246238 0.31339523 1.705 461584
0.95547336 0.32295334 1.7570001 2369865
-1.0192152 0.31497145 1.6960001 461584
0.95057905 0.32462859 1.748 2238536
-1.0144076 0.31670097 1.6880001 461584
0.94568479 0.32626954 1.7390001 2107984
-1.0096 0.3184 1.6800001 461584
0.94568479 0.32958192 1.7390001 2042191
-1.0041915 0.31987718 1.6710001 461584
0.94133431 0.33136284 1.7310001 1910605
-1.0041915 0.32306001 1.6710001 461584
0.93644005 0.33292004 1.7220001 2042191
-0.99938381 0.32468095 1.6630001 461584
0.93644005 0.3362 1.7220001 2107984
-0.99457622 0.32627144 1.6550001 461584
0.93644005 0.33948004 1.7220001 2173264
-0.99457622 0.32942382 1.6550001 593170
0.93154573 0.34096858 1.7130001 2107984
-0.98976862 0.33096859 1.6470001 593170
0.92719525 0.3426238 1.705 1911371
-0.98976862 0.3341057 1.6470001 593170
0.92230099 0.34404573 1.6960001 1779785
-0.98496091 0.33560476 1.6390001 461584
0.92230099 0.34727621 1.6960001 1713992
-0.98075438 0.33728001 1.6320001 461584
0.92230099 0.35050666 1.6960001 1582406
-0.98075438 0.3403886 1.6320001 395791
0.92230099 0.35373715 1.6960001 1187648
-0.97594666 0.34181336 1.6240001 395791
0.91795051 0.3552838 1.6880001 1779785
-0.97594666 0.34490666 1.6240001 593170
0.91795051 0.35849905 1.6880001 1845578
-0.97113907 0.34628573 1.6160001 461848
0.91360003 0.35999998 1.6800001 2042187
-0.97421718 0.3493638 1.6160001 527641
-0.97113907 0.3493638 1.6160001 593170
0.91360003 0.36320001 1.6800001 2239570
-0.97421718 0.35244194 1.6160001 724756
0.91360003 0.3664 1.6800001 2107984
-0.97421718 0.35552001 1.6160001 527641
0.90435529 0.36586002 1.6630001 2042191
-0.96517432 0.35526955 1.6010001 724756
0.90435529 0.36902764 1.6630001 2239311
-0.95613146 0.35496193 1.5860001 658963
0.9000048 0.37040478 1.6550001 2436690
-0.95191151 0.35640287 1.5790001 593420
0.89251721 0.37175146 1.6470001 2107980
-0.94769138 0.35781714 1.572 461834
0.88818192 0.37306762 1.6390001 2107980
-0.94769138 0.36081144 1.572 725006
0.88818192 0.37618953 1.6390001 2107980
-0.94286865 0.3619543 1.5640001 658963
0.88818192 0.37931144 1.6390001 1910605
-0.94286865 0.36493334 1.5640001 658963
0.88438857 0.38080001 1.6320001 1779533
-0.94286865 0.36791241 1.5640001 593436
0.88438857 0.3839086 1.6320001 1779533
-0.93864864 0.36923143 1.557 593436
0.88005334 0.38512 1.6240001 1976398
-0.93864864 0.37219715 1.557 724756
0.87571812 0.38630098 1.6160001 2173012
-0.93442857 0.37347621 1.5500001 790549
0.87192482 0.38769239 1.6090001 2370897
-0.93442857 0.3764286 1.5500001 659213
0.86758959 0.3888143 1.6010001 2304850
-0.93442857 0.37938094 1.5500001 528395
0.86758959 0.39186382 1.6010001 2042191
-0.93442857 0.38233334 1.5500001 658963
0.86379623 0.39318669 1.5940001 2042191
-0.93020862 0.38354573 1.5430001 593170
0.86379623 0.39622289 1.5940001 2174026
-0.93020862 0.38648477 1.5430001 658963
0.85946095 0.39725524 1.5860001 2042191
-0.92176861 0.38589048 1.529 658963
0.85566765 0.39850953 1.5790001 2107980
-0.92105246 0.38727716 1.5230001 593170
-0.9181515 0.38727716 1.5230001 593170
0.85187429 0.39973715 1.572 1779785
-0.9168191 0.38838476 1.516 593170
0.85187429 0.40273145 1.572 1911106
-0.91258574 0.38946575 1.5090001 658963
0.84753913 0.40366098 1.5640001 1911106
-0.90895718 0.39078 1.503 724756
0.84753913 0.40664005 1.5640001 1976899
-0.90895718 0.39364287 1.503 659477
0.84753913 0.40961909 1.5640001 2042187
-0.90895718 0.39650571 1.503 659477
0.83615905 0.40705812 1.5430001 2239057
-0.90472382 0.39750856 1.4960001 725270
0.83615905 0.40999717 1.5430001 1583955
-0.90472382 0.40035811 1.4960001 659477
0.83615905 0.41293621 1.5430001 1715541
-0.90049052 0.40132096 1.4890001 659981
0.83236569 0.41398859 1.536 2633558
-0.89686191 0.40252855 1.483 659477
0.83236569 0.41691428 1.536 1781334
-0.89686191 0.40535334 1.483 922651
0.83236569 0.41984001 1.536 1976398
-0.89323342 0.40652668 1.4770001 922651
0.83236569 0.4227657 1.536 1910605
-0.889 0.40740001 1.47 922651
0.83236569 0.42569143 1.536 1713992
-0.889 0.41020003 1.47 660769
0.81863999 0.42303622 1.516 1582406
