# .PCD v0.7 - Point Cloud Data file format
VERSION 0.7
FIELDS x y z rgba
SIZE 4 4 4 4
TYPE F F F U
COUNT 1 1 1 1
WIDTH 1228
HEIGHT 1
VIEWPOINT 0 0 0 1 0 0 0
POINTS 1228
DATA ascii
0.6346752 0.2704505 1.427 4934225
0.63739336 0.2704505 1.427 5065557
0.65359527 0.2681762 1.4150001 1518164
0.80524004 0.32636005 1.7220001 2239057
0.80852002 0.32636005 1.7220001 1779533
0.84962577 0.32958192 1.7390001 1647947
0.87180668 0.33299333 1.7570001 2106953
0.87515336 0.33299333 1.7570001 2238539
0.87850004 0.33299333 1.7570001 2107980
0.88184667 0.33299333 1.7570001 2173773
0.88519341 0.33299333 1.7570001 2698830
0.88854003 0.33299333 1.7570001 2764623
0.89188665 0.33299333 1.7570001 2699097
0.89397717 0.33128762 1.748 2107980
0.89599913 0.32958192 1.7390001 1713992
0.90262389 0.32958192 1.7390001 2107980
0.91062474 0.33128762 1.748 2107980
0.90924859 0.32958192 1.7390001 2107980
0.91587335 0.32958192 1.7390001 2041911
0.92249811 0.32958192 1.7390001 2042187
0.92581052 0.32958192 1.7390001 2173773
-0.98509437 0.31987718 1.6710001 397338
-0.96918011 0.31987718 1.6710001 658963
-0.95200002 0.32160002 1.6800001 593170
-0.94880003 0.32160002 1.6800001 593170
-0.93280005 0.32160002 1.6800001 527643
-0.92876196 0.32466286 1.6960001 463381
-0.81677622 0.32638574 1.705 593436
-0.81734574 0.32791716 1.7130001 659229
-0.81408292 0.32791716 1.7130001 659229
-0.80703336 0.32638574 1.705 659229
-0.80378574 0.32638574 1.705 659477
-0.80429429 0.32791716 1.7130001 593684
-0.78105241 0.32638574 1.705 593170
-0.77780473 0.32638574 1.705 855059
-0.77455717 0.32638574 1.705 855059
-0.77130949 0.32638574 1.705 659981
-0.76806194 0.32638574 1.705 594188
-0.76481426 0.32638574 1.705 724756
-0.73558569 0.32638574 1.705 331795
-0.6929372 0.32466286 1.6960001 790549
-0.68687147 0.32638574 1.705 856608
-0.68362379 0.32638574 1.705 659229
-0.68037617 0.32638574 1.705 659477
-0.67712861 0.32638574 1.705 659477
-0.67388093 0.32638574 1.705 659477
-0.6576429 0.32638574 1.705 790549
-0.64448005 0.32466286 1.6960001 1249313
-0.62880003 0.32160002 1.6800001 856856
-0.62559998 0.32160002 1.6800001 725774
-0.51747429 0.26876572 1.404 659477
-0.49979433 0.26646858 1.3920001 4603450
-0.49535719 0.26551145 1.3870001 4932147
-0.49271524 0.26551145 1.3870001 5261112
-0.49007335 0.26551145 1.3870001 5457221
-0.48743147 0.26551145 1.3870001 5259842
-0.48478955 0.26551145 1.3870001 5063744
-0.48214763 0.26551145 1.3870001 5063744
-0.47950572 0.26551145 1.3870001 5129537
-0.47686383 0.26551145 1.3870001 5195330
-0.47422194 0.26551145 1.3870001 5391424
-0.45308667 0.26551145 1.3870001 5457221
-0.44251907 0.26551145 1.3870001 5523014
-0.42666766 0.26551145 1.3870001 5523010
-0.37118763 0.26551145 1.3870001 5916484
-0.36854574 0.26551145 1.3870001 5654857
-0.36590385 0.26551145 1.3870001 5720650
-0.36326191 0.26551145 1.3870001 5720902
-0.36062002 0.26551145 1.3870001 5786695
-0.35797811 0.26551145 1.3870001 5851970
-0.35661715 0.26646858 1.3920001 5851970
-0.34866285 0.26646858 1.3920001 5917511
-0.34217718 0.26761717 1.3980001 5785925
-0.31022289 0.26761717 1.3980001 5916484
-0.26609144 0.26876572 1.404 6114122
-0.25539428 0.26876572 1.404 6180683
-0.25272003 0.26876572 1.404 6180683
-0.24305716 0.2699143 1.4100001 6246476
-0.24037144 0.2699143 1.4100001 6180683
-0.23768574 0.2699143 1.4100001 6180683
-0.20277144 0.2699143 1.4100001 6312269
-0.20008573 0.2699143 1.4100001 6312269
-0.15174288 0.2699143 1.4100001 6574412
-0.14905715 0.2699143 1.4100001 6574414
-0.14637142 0.2699143 1.4100001 6574414
-0.13341428 0.27087143 1.4150001 6639694
-0.13071905 0.27087143 1.4150001 6771280
-0.12802382 0.27087143 1.4150001 6574414
-0.12532857 0.27087143 1.4150001 6574414
-0.12263335 0.27087143 1.4150001 6574412
-0.1199381 0.27087143 1.4150001 6574412
-0.11724286 0.27087143 1.4150001 6574412
-0.076542862 0.2699143 1.4100001 6706000
-0.073857144 0.2699143 1.4100001 6771541
-0.063338101 0.27087143 1.4150001 6640464
-0.036257144 0.2699143 1.4100001 6575189
-0.028420003 0.27202004 1.4210001 6640464
0.047166668 0.27087143 1.4150001 6706000
0.068485714 0.2699143 1.4100001 9468802
0.078442864 0.27661428 1.4450001 0
0.081195243 0.27661428 1.4450001 65792
0.093380012 0.27202004 1.4210001 7363678
0.10150001 0.27202004 1.4210001 6310990
0.10420667 0.27202004 1.4210001 6244938
0.10691334 0.27202004 1.4210001 6442317
0.10962001 0.27202004 1.4210001 6376783
0.12586002 0.27202004 1.4210001 6311499
0.12856668 0.27202004 1.4210001 6179913
0.14419524 0.27087143 1.4150001 6376781
0.14689049 0.27087143 1.4150001 6377044
0.15767144 0.27087143 1.4150001 6377033
0.16916668 0.27202004 1.4210001 6180431
0.17458002 0.27202004 1.4210001 6180431
0.17728668 0.27202004 1.4210001 6180431
0.17999335 0.27202004 1.4210001 6114638
0.18270002 0.27202004 1.4210001 6114638
0.18811335 0.27202004 1.4210001 6245458
0.19352669 0.27202004 1.4210001 5983561
0.20435335 0.27202004 1.4210001 6179661
0.21337047 0.27316856 1.427 6049354
0.22424285 0.27316856 1.427 6114899
0.22696096 0.27316856 1.427 6114899
0.22967905 0.27316856 1.427 6049106
0.23954003 0.27202004 1.4210001 5984335
0.24224669 0.27202004 1.4210001 5984335
0.24495335 0.27202004 1.4210001 5918292
0.24766003 0.27202004 1.4210001 5786706
0.27316856 0.27316856 1.427 5852749
0.27588665 0.27316856 1.427 5852749
0.27860478 0.27316856 1.427 5853001
0.30034953 0.27316856 1.427 5590608
0.30306762 0.27316856 1.427 5590608
0.30578572 0.27316856 1.427 5852749
0.30850384 0.27316856 1.427 5786956
0.31122193 0.27316856 1.427 5917007
0.31394002 0.27316856 1.427 5982800
0.33296669 0.27316856 1.427 5590354
0.34927526 0.27316856 1.427 5524815
0.35199335 0.27316856 1.427 5590608
0.35471144 0.27316856 1.427 5720650
0.35742953 0.27316856 1.427 5720650
0.37102002 0.27316856 1.427 5458509
0.37373811 0.27316856 1.427 5458509
0.3764562 0.27316856 1.427 5458509
0.37917429 0.27316856 1.427 5524302
0.38189238 0.27316856 1.427 5459018
0.38461047 0.27316856 1.427 5459018
0.38732857 0.27316856 1.427 5459018
0.39004669 0.27316856 1.427 5459018
0.40464669 0.27202004 1.4210001 5392716
0.4452467 0.27202004 1.4210001 5392466
0.45528096 0.27316856 1.427 5326923
0.46071717 0.27316856 1.427 5326923
0.46343526 0.27316856 1.427 5392464
0.46615335 0.27316856 1.427 5458257
0.46887141 0.27316856 1.427 5392464
0.47158954 0.27316856 1.427 5458257
0.47430763 0.27316856 1.427 5458509
0.47702572 0.27316856 1.427 5392716
0.50420666 0.27316856 1.427 4998735
0.50692475 0.27316856 1.427 5128781
0.50964284 0.27316856 1.427 5194574
0.53138763 0.27316856 1.427 5129805
0.53410572 0.27316856 1.427 4999246
0.53682387 0.27316856 1.427 4933453
0.53954196 0.27316856 1.427 5129805
0.54226005 0.27316856 1.427 5195598
0.54497808 0.27316856 1.427 4999505
0.56975335 0.27202004 1.4210001 4867660
0.57246006 0.27202004 1.4210001 4867660
0.57759529 0.27316856 1.427 4933705
0.59118569 0.27316856 1.427 5064012
0.62108481 0.27316856 1.427 4933973
0.6238029 0.27316856 1.427 4933973
0.81180006 0.32964 1.7220001 2042187
0.81508005 0.32964 1.7220001 1779533
0.81836009 0.32964 1.7220001 1516361
0.82492006 0.32964 1.7220001 1713992
0.82820004 0.32964 1.7220001 2041409
0.83582568 0.33136284 1.7310001 2107202
0.83912289 0.33136284 1.7310001 2172743
0.86618769 0.3328943 1.7390001 1779785
0.89064759 0.33461714 1.748 2567242
0.89397717 0.33461714 1.748 2042191
0.90836287 0.33136284 1.7310001 2042187
0.91166002 0.33136284 1.7310001 2107980
-0.98037815 0.32151335 1.6630001 593170
-0.92780292 0.32306001 1.6710001 658723
-0.92438096 0.3263467 1.6880001 462877
-0.77326477 0.3263467 1.6880001 527891
-0.73233813 0.32963336 1.705 659981
-0.7252419 0.32789335 1.6960001 659981
-0.72201151 0.32789335 1.6960001 659477
-0.71878099 0.32789335 1.6960001 725270
-0.71555054 0.32789335 1.6960001 921897
-0.71232003 0.32789335 1.6960001 724518
-0.70908958 0.32789335 1.6960001 725022
-0.70585907 0.32789335 1.6960001 856608
-0.70262861 0.32789335 1.6960001 856856
-0.6960991 0.3263467 1.6880001 725270
-0.6896686 0.3263467 1.6880001 593684
-0.68324572 0.32789335 1.6960001 659477
-0.64448005 0.32789335 1.6960001 659477
-0.62880003 0.32480001 1.6800001 659477
-0.51747429 0.27144003 1.404 856856
-0.50993717 0.27028003 1.3980001 1183520
-0.49271524 0.26815334 1.3870001 4998955
-0.42138383 0.26815334 1.3870001 5457221
-0.35131431 0.26912001 1.3920001 5917511
-0.34866285 0.26912001 1.3920001 5917511
-0.34217718 0.27028003 1.3980001 5786177
-0.32353717 0.27028003 1.3980001 5983561
-0.3208743 0.27028003 1.3980001 5983561
-0.31821147 0.27028003 1.3980001 5983561
-0.3155486 0.27028003 1.3980001 5786182
-0.31288573 0.27028003 1.3980001 5654339
-0.2672286 0.2726 1.4100001 6049354
-0.26074284 0.27144003 1.404 6115401
-0.25806859 0.27144003 1.404 6115401
-0.25539428 0.27144003 1.404 6311753
-0.24574289 0.2726 1.4100001 6180683
-0.24305716 0.2726 1.4100001 6180683
-0.21082857 0.2726 1.4100001 6180940
-0.20814288 0.2726 1.4100001 6312267
-0.20545715 0.2726 1.4100001 6312267
-0.15174288 0.2726 1.4100001 6508619
-0.13880476 0.27356669 1.4150001 6442576
-0.13610953 0.27356669 1.4150001 6442576
-0.13341428 0.27356669 1.4150001 6442576
-0.081914283 0.2726 1.4100001 6640709
-0.079228573 0.2726 1.4100001 6706000
-0.076542862 0.2726 1.4100001 6706000
-0.063338101 0.27356669 1.4150001 6443853
-0.036385715 0.27356669 1.4150001 6575441
-0.028420003 0.27472669 1.4210001 6509646
-0.017519047 0.27356669 1.4150001 6508878
-0.01482381 0.27356669 1.4150001 6312269
0.0094333338 0.27356669 1.4150001 6574671
0.012128572 0.27356669 1.4150001 6706000
0.01482381 0.27356669 1.4150001 6706000
0.025604764 0.27356669 1.4150001 6574162
0.028300002 0.27356669 1.4150001 6574162
0.03099524 0.27356669 1.4150001 6639955
0.033690479 0.27356669 1.4150001 6639955
0.036385715 0.27356669 1.4150001 6705748
0.039080955 0.27356669 1.4150001 6509144
0.041776191 0.27356669 1.4150001 6443351
0.044660006 0.27472669 1.4210001 6443855
0.068728574 0.27356669 1.4150001 9533312
0.079148576 0.28187999 1.4580001 0
0.093380012 0.27472669 1.4210001 7494499
0.13127334 0.27472669 1.4210001 6114122
0.13398002 0.27472669 1.4210001 6114122
0.13668668 0.27472669 1.4210001 6244938
0.13939334 0.27472669 1.4210001 6310731
0.14958571 0.27356669 1.4150001 6113868
0.15228096 0.27356669 1.4150001 6114372
0.15497619 0.27356669 1.4150001 6180165
0.15767144 0.27356669 1.4150001 6114122
0.16646002 0.27472669 1.4210001 6311247
0.18270002 0.27472669 1.4210001 6179661
0.18540668 0.27472669 1.4210001 5983565
0.19352669 0.27472669 1.4210001 5917772
0.19623335 0.27472669 1.4210001 5983561
0.20164669 0.27472669 1.4210001 5983565
0.20435335 0.27472669 1.4210001 5917772
0.21337047 0.27588665 1.427 5983565
0.25957811 0.27588665 1.427 5917520
0.2622962 0.27588665 1.427 5983565
0.26501429 0.27588665 1.427 5983565
0.26773238 0.27588665 1.427 5853001
0.2704505 0.27588665 1.427 5787208
0.39276478 0.27588665 1.427 5654857
0.40735337 0.27472669 1.4210001 5458509
0.41006005 0.27472669 1.4210001 5392716
0.4127667 0.27472669 1.4210001 5458257
0.41547337 0.27472669 1.4210001 5458257
0.41818005 0.27472669 1.4210001 5458007
0.4208867 0.27472669 1.4210001 5392214
0.42359337 0.27472669 1.4210001 5392464
0.42630005 0.27472669 1.4210001 5458257
0.4290067 0.27472669 1.4210001 5458509
0.43171337 0.27472669 1.4210001 5392716
0.43442005 0.27472669 1.4210001 5458257
0.4371267 0.27472669 1.4210001 5458257
0.43983337 0.27472669 1.4210001 5392464
0.4452467 0.27472669 1.4210001 5392214
0.45528096 0.27588665 1.427 5261130
0.54769617 0.27588665 1.427 5065039
0.56975335 0.27472669 1.4210001 4867660
0.5884676 0.27588665 1.427 4867660
0.59118569 0.27588665 1.427 4867660
0.59662193 0.27588665 1.427 4801867
0.59934002 0.27588665 1.427 4867660
0.60205811 0.27588665 1.427 4933453
0.6047762 0.27588665 1.427 4933455
0.60749429 0.27588665 1.427 4933455
0.61021239 0.27588665 1.427 4802639
0.61293048 0.27588665 1.427 4802639
0.61564857 0.27588665 1.427 4868432
0.61836672 0.27588665 1.427 4802639
0.64282954 0.27588665 1.427 5525849
0.64554763 0.27588665 1.427 5723228
0.79079527 0.32963336 1.705 1847642
0.79404283 0.32963336 1.705 2436438
0.7972905 0.32963336 1.705 2436438
0.81408292 0.33118001 1.7130001 2173518
0.84241998 0.33465999 1.7310001 2042187
0.84571719 0.33465999 1.7310001 2042191
0.86950004 0.3362067 1.7390001 1319985
0.87281245 0.3362067 1.7390001 1583157
0.8761248 0.3362067 1.7390001 2370122
0.87943721 0.3362067 1.7390001 2370122
0.91495717 0.33465999 1.7310001 2173266
-0.98671341 0.32468095 1.6630001 395791
-0.98037815 0.32468095 1.6630001 461848
-0.94053435 0.32624286 1.6710001 658963
-0.92780292 0.32624286 1.6710001 725022
-0.92000008 0.32800001 1.6800001 593436
-0.90079999 0.32800001 1.6800001 331795
-0.88800001 0.32800001 1.6800001 593170
-0.88160002 0.32800001 1.6800001 724756
-0.86732864 0.32624286 1.6710001 724756
-0.86414582 0.32624286 1.6710001 724756
-0.86096287 0.32624286 1.6710001 724756
-0.79631245 0.33112383 1.6960001 593436
-0.78934097 0.32956192 1.6880001 724756
-0.78612578 0.32956192 1.6880001 790549
-0.77600002 0.32800001 1.6800001 856608
-0.76960003 0.32800001 1.6800001 659477
-0.6896686 0.32956192 1.6880001 527891
-0.6864534 0.32956192 1.6880001 593170
-0.66386288 0.33112383 1.6960001 659229
-0.64144003 0.32956192 1.6880001 659477
-0.62880003 0.32800001 1.6800001 659229
-0.43195146 0.27079526 1.3870001 5391428
-0.42402571 0.27079526 1.3870001 5456958
-0.41760001 0.27177143 1.3920001 5523264
-0.41494858 0.27177143 1.3920001 5391678
-0.41229716 0.27177143 1.3920001 5391424
-0.40964574 0.27177143 1.3920001 5457217
-0.40699431 0.27177143 1.3920001 5523014
-0.40434289 0.27177143 1.3920001 5457221
-0.40169147 0.27177143 1.3920001 5457221
-0.39904004 0.27177143 1.3920001 5523014
-0.39638859 0.27177143 1.3920001 5523010
-0.39373714 0.27177143 1.3920001 5523010
-0.35131431 0.27177143 1.3920001 5983304
-0.34601143 0.27177143 1.3920001 5785675
-0.34217718 0.27294287 1.3980001 5785925
-0.33027431 0.27411428 1.404 5785675
-0.32620004 0.27294287 1.3980001 5785675
-0.30353144 0.27411428 1.404 5917511
-0.30085716 0.27411428 1.404 5983304
-0.29818287 0.27411428 1.404 5917770
-0.29550856 0.27411428 1.404 5917770
-0.29283428 0.27411428 1.404 5917511
-0.27946284 0.27411428 1.404 5851977
-0.27678859 0.27411428 1.404 5917511
-0.2672286 0.27528572 1.4100001 5983561
-0.25806859 0.27411428 1.404 6180935
-0.24574289 0.27528572 1.4100001 6179915
-0.22157143 0.27528572 1.4100001 6180431
-0.21888573 0.27528572 1.4100001 6311753
-0.21620001 0.27528572 1.4100001 6311753
-0.2135143 0.27528572 1.4100001 6180683
-0.19270954 0.27626193 1.4150001 6508619
-0.1900143 0.27626193 1.4150001 6574412
-0.18731906 0.27626193 1.4150001 6246474
-0.18462382 0.27626193 1.4150001 6312267
-0.15228096 0.27626193 1.4150001 6508619
-0.13880476 0.27626193 1.4150001 6312017
-0.063338101 0.27626193 1.4150001 6443853
-0.036385715 0.27626193 1.4150001 6771793
-0.028420003 0.27743337 1.4210001 6509648
-0.017519047 0.27626193 1.4150001 6509396
-0.012128572 0.27626193 1.4150001 6377810
-0.0094333338 0.27626193 1.4150001 6574412
-0.0067380955 0.27626193 1.4150001 6574412
-0.0040428573 0.27626193 1.4150001 6377810
-0.0013476191 0.27626193 1.4150001 6377810
0.0013476191 0.27626193 1.4150001 6378062
0.0040428573 0.27626193 1.4150001 6378062
0.0067380955 0.27626193 1.4150001 6574671
0.017593335 0.27743337 1.4210001 6443855
0.020214286 0.27626193 1.4150001 6378062
0.022909526 0.27626193 1.4150001 6378060
0.025604764 0.27626193 1.4150001 6378060
0.068728574 0.27626193 1.4150001 9402500
0.07746572 0.27860478 1.427 0
0.093774289 0.27860478 1.427 7363165
0.096086673 0.27743337 1.4210001 6244684
0.16646002 0.27743337 1.4210001 6245708
0.19434381 0.27860478 1.427 5917770
0.20164669 0.27743337 1.4210001 5917772
0.20793429 0.27860478 1.427 5917007
0.2106524 0.27860478 1.427 5982800
0.21337047 0.27860478 1.427 5917772
0.23783334 0.27860478 1.427 6049106
0.24055144 0.27860478 1.427 5983565
0.2541419 0.27860478 1.427 6049097
0.25685999 0.27860478 1.427 5852497
0.39548287 0.27860478 1.427 5719889
0.39820096 0.27860478 1.427 5458509
0.44254005 0.27743337 1.4210001 5458257
0.4452467 0.27743337 1.4210001 5458257
0.44795337 0.27743337 1.4210001 5392464
0.45528096 0.27860478 1.427 5326923
0.5670467 0.27743337 1.4210001 4867408
0.56975335 0.27743337 1.4210001 4867660
0.58574957 0.27860478 1.427 4801869
0.5884676 0.27860478 1.427 4736074
0.64826572 0.27860478 1.427 5986659
0.65098381 0.27860478 1.427 5591901
0.6537019 0.27860478 1.427 4673118
0.65641999 0.27860478 1.427 2699328
0.81028098 0.33288094 1.705 2305104
0.88274956 0.33951905 1.7390001 1648199
0.88937432 0.33951905 1.7390001 2502483
0.91676009 0.3362 1.7220001 2042191
0.92004001 0.3362 1.7220001 1779785
-0.98511904 0.32627144 1.6550001 330262
-0.97566193 0.32627144 1.6550001 527643
-0.95044285 0.32627144 1.6550001 593170
-0.94053435 0.32942575 1.6710001 724756
-0.92780292 0.32942575 1.6710001 659229
-0.92000008 0.3312 1.6800001 462877
-0.90870577 0.32942575 1.6710001 461848
-0.90552294 0.32942575 1.6710001 461848
-0.90234005 0.32942575 1.6710001 461584
-0.89915717 0.32942575 1.6710001 593170
-0.88960862 0.32942575 1.6710001 724756
-0.88642579 0.32942575 1.6710001 790549
-0.88800001 0.3312 1.6800001 659477
-0.88006002 0.32942575 1.6710001 659477
-0.85778004 0.32942575 1.6710001 593170
-0.8592 0.3312 1.6800001 658963
-0.78240001 0.3312 1.6800001 725022
-0.77279997 0.3312 1.6800001 659229
-0.76547718 0.32942575 1.6710001 659229
-0.71232003 0.33435431 1.6960001 856856
-0.68320006 0.3312 1.6800001 658963
-0.67040002 0.3312 1.6800001 659477
-0.66394669 0.33277714 1.6880001 659477
-0.63200003 0.3312 1.6800001 856608
-0.62880003 0.3312 1.6800001 725022
-0.62559998 0.3312 1.6800001 725270
-0.49535719 0.27343714 1.3870001 5128745
-0.49271524 0.27343714 1.3870001 5128745
-0.49007335 0.27343714 1.3870001 5063740
-0.48743147 0.27343714 1.3870001 5063740
-0.48478955 0.27343714 1.3870001 5063744
-0.48214763 0.27343714 1.3870001 5063744
-0.47950572 0.27343714 1.3870001 5063740
-0.47686383 0.27343714 1.3870001 5063740
-0.43350857 0.27442285 1.3920001 5391428
-0.42402571 0.27343714 1.3870001 5391424
-0.41760001 0.27442285 1.3920001 5523516
-0.41494858 0.27442285 1.3920001 5523516
-0.34217718 0.27560574 1.3980001 5785925
-0.33152574 0.27560574 1.3980001 5655109
-0.32886288 0.27560574 1.3980001 5654857
-0.30888 0.27678859 1.404 5851695
-0.30620572 0.27678859 1.404 5983281
-0.29016 0.27678859 1.404 5917511
-0.28748572 0.27678859 1.404 5786679
-0.28481144 0.27678859 1.404 5918265
-0.28213716 0.27678859 1.404 5917770
-0.27678859 0.27678859 1.404 5983561
-0.27411428 0.27678859 1.404 5983561
-0.27144003 0.27678859 1.404 5983561
-0.2672286 0.27797145 1.4100001 5983561
-0.25806859 0.27678859 1.404 6179915
-0.24574289 0.27797145 1.4100001 6245706
-0.24305716 0.27797145 1.4100001 6114120
-0.24037144 0.27797145 1.4100001 6049081
-0.23768574 0.27797145 1.4100001 6114874
-0.22962858 0.27797145 1.4100001 6114890
-0.22694287 0.27797145 1.4100001 6114890
-0.22425716 0.27797145 1.4100001 6311753
-0.1981 0.27895716 1.4150001 6377292
-0.19540478 0.27895716 1.4150001 6311499
-0.14419524 0.27895716 1.4150001 6442828
-0.14150001 0.27895716 1.4150001 6508621
-0.036385715 0.27895716 1.4150001 6706000
-0.028420003 0.28014004 1.4210001 6509396
0.022909526 0.27895716 1.4150001 6443587
0.041953336 0.28014004 1.4210001 6377810
0.068728574 0.27895716 1.4150001 9861770
0.081588566 0.28625143 1.452 65792
0.15497619 0.27895716 1.4150001 6114122
0.16375335 0.28014004 1.4210001 6048329
0.17999335 0.28014004 1.4210001 6114122
0.18270002 0.28014004 1.4210001 6114122
0.18540668 0.28014004 1.4210001 5983561
0.19434381 0.28132287 1.427 6246460
0.20164669 0.28014004 1.4210001 6114122
0.21337047 0.28132287 1.427 5785925
0.21880667 0.28132287 1.427 5917772
0.24326953 0.28132287 1.427 5983565
0.24598764 0.28132287 1.427 5983572
0.24870573 0.28132287 1.427 5917779
0.25142381 0.28132287 1.427 5786956
0.27860478 0.28132287 1.427 5983565
0.28132287 0.28132287 1.427 5983565
0.28404096 0.28132287 1.427 5852497
0.40091908 0.28132287 1.427 5392716
0.40363714 0.28132287 1.427 5392466
0.42266384 0.28132287 1.427 5326671
0.4253819 0.28132287 1.427 5326923
0.4452467 0.28014004 1.4210001 5458509
0.45528096 0.28132287 1.427 5261639
0.46071717 0.28132287 1.427 5392716
0.46343526 0.28132287 1.427 5524052
0.46615335 0.28132287 1.427 5524052
0.5670467 0.28014004 1.4210001 4801867
0.5884676 0.28132287 1.427 4736074
0.65641999 0.28132287 1.427 3225163
0.82387143 0.3377057 1.7130001 2107980
0.83148009 0.33948004 1.7220001 2042187
0.83476001 0.33948004 1.7220001 2107980
0.83804005 0.33948004 1.7220001 2173773
0.84901428 0.34125429 1.7310001 1779015
0.85231149 0.34125429 1.7310001 1648199
0.86550003 0.34125429 1.7310001 2174026
0.87281245 0.34283143 1.7390001 2305612
0.87943721 0.34283143 1.7390001 2370643
0.88274956 0.34283143 1.7390001 2239057
0.88198572 0.34125429 1.7310001 2173264
0.88858002 0.34125429 1.7310001 2173773
0.88724005 0.33948004 1.7220001 2042187
0.8905201 0.33948004 1.7220001 1844808
0.89847142 0.34125429 1.7310001 1779533
0.90176862 0.34125429 1.7310001 1911119
0.91348004 0.33948004 1.7220001 1910353
-0.98035711 0.32783145 1.6470001 461848
-0.97566193 0.32942382 1.6550001 527643
-0.94584858 0.32783145 1.6470001 593170
-0.93603146 0.33101621 1.6630001 724756
-0.923361 0.33101621 1.6630001 659477
-0.91507149 0.33260858 1.6710001 725022
-0.88960862 0.33260858 1.6710001 659477
-0.78240001 0.33440003 1.6800001 528924
-0.76229435 0.33260858 1.6710001 659229
-0.72480005 0.33440003 1.6800001 659229
-0.72160006 0.33440003 1.6800001 724756
-0.72182101 0.3359924 1.6880001 724756
-0.71520001 0.33440003 1.6800001 463381
-0.71200001 0.33440003 1.6800001 266002
-0.71232003 0.33758476 1.6960001 856342
-0.66999143 0.33260858 1.6710001 724756
-0.66073143 0.3359924 1.6880001 659229
-0.64480001 0.33440003 1.6800001 593170
-0.63840002 0.33440003 1.6800001 789266
-0.63520002 0.33440003 1.6800001 986645
-0.63200003 0.33440003 1.6800001 1052438
-0.62224859 0.33260858 1.6710001 659229
-0.50856674 0.27607906 1.3870001 920852
-0.50592476 0.27607906 1.3870001 920852
-0.50328285 0.27607906 1.3870001 986645
-0.50244576 0.27707428 1.3920001 2826532
-0.49979433 0.27707428 1.3920001 4668736
-0.47422194 0.27607906 1.3870001 5390915
-0.47158003 0.27607906 1.3870001 5522501
-0.43350857 0.27707428 1.3920001 5521731
-0.42402571 0.27607906 1.3870001 5391678
-0.41494858 0.27707428 1.3920001 5719362
-0.39638859 0.27707428 1.3920001 5391678
-0.39373714 0.27707428 1.3920001 5391678
-0.34217718 0.27826861 1.3980001 5851718
-0.33418861 0.27826861 1.3980001 5655359
-0.33152574 0.27826861 1.3980001 5721152
-0.31957713 0.27946284 1.404 5917772
-0.31690288 0.27946284 1.404 5917772
-0.31422856 0.27946284 1.404 5719882
-0.31155431 0.27946284 1.404 5719882
-0.27411428 0.27946284 1.404 6113868
-0.2672286 0.28065717 1.4100001 5917770
-0.25648573 0.28065717 1.4100001 6114122
-0.23500001 0.28065717 1.4100001 6114122
-0.23231429 0.28065717 1.4100001 6114122
-0.22962858 0.28065717 1.4100001 6114122
-0.20618573 0.28165239 1.4150001 6311751
-0.20349048 0.28165239 1.4150001 6180683
-0.20079525 0.28165239 1.4150001 6246476
-0.15174288 0.28065717 1.4100001 6508619
-0.14958571 0.28165239 1.4150001 6508621
-0.14689049 0.28165239 1.4150001 6508621
-0.036385715 0.28165239 1.4150001 6574414
-0.028420003 0.28284669 1.4210001 6640207
-0.020300003 0.28284669 1.4210001 6377810
-0.017593335 0.28284669 1.4210001 6377810
0.0040600006 0.28284669 1.4210001 6706000
0.0067666671 0.28284669 1.4210001 6443855
0.0094733341 0.28284669 1.4210001 6509648
0.012180001 0.28284669 1.4210001 6640464
0.014886668 0.28284669 1.4210001 6640464
0.022909526 0.28165239 1.4150001 6378060
0.031126669 0.28284669 1.4210001 6443855
0.033833336 0.28284669 1.4210001 6443855
0.036540005 0.28284669 1.4210001 6443855
0.039246671 0.28284669 1.4210001 6574671
0.041953336 0.28284669 1.4210001 6574671
0.049861908 0.28165239 1.4150001 6378062
0.052557144 0.28165239 1.4150001 6509648
0.055252384 0.28165239 1.4150001 6705748
0.068728574 0.28165239 1.4150001 9534597
0.081195243 0.28762382 1.4450001 65792
0.10420667 0.28284669 1.4210001 6311238
0.10691334 0.28284669 1.4210001 6245445
0.10962001 0.28284669 1.4210001 6310988
0.11232667 0.28284669 1.4210001 6245195
0.11503334 0.28284669 1.4210001 6244938
0.11774001 0.28284669 1.4210001 6310731
0.12044667 0.28284669 1.4210001 6245195
0.12315334 0.28284669 1.4210001 6310988
0.12586002 0.28284669 1.4210001 6179915
0.12856668 0.28284669 1.4210001 6179915
0.13127334 0.28284669 1.4210001 6114122
0.13398002 0.28284669 1.4210001 6114122
0.13668668 0.28284669 1.4210001 6179661
0.13939334 0.28284669 1.4210001 6113868
0.14210002 0.28284669 1.4210001 6114122
0.15563335 0.28284669 1.4210001 6179402
0.17187335 0.28284669 1.4210001 6114122
0.17458002 0.28284669 1.4210001 6245188
0.17728668 0.28284669 1.4210001 6245188
0.19434381 0.28404096 1.427 6180165
0.19706191 0.28404096 1.427 6114122
0.20249809 0.28404096 1.427 5917520
0.21426764 0.28523526 1.4330001 5851468
0.22152478 0.28404096 1.427 5983565
0.2704505 0.28404096 1.427 5786956
0.27316856 0.28404096 1.427 5983561
0.27860478 0.28404096 1.427 5983565
0.28675905 0.28404096 1.427 5918542
0.33840284 0.28404096 1.427 5524811
0.34112096 0.28404096 1.427 5590604
0.34383905 0.28404096 1.427 5590608
0.34655714 0.28404096 1.427 5590608
0.34927526 0.28404096 1.427 5590608
0.35199335 0.28404096 1.427 5393229
0.35471144 0.28404096 1.427 5720650
0.35742953 0.28404096 1.427 5852236
0.36014763 0.28404096 1.427 5590608
0.40635523 0.28404096 1.427 5326671
0.40907332 0.28404096 1.427 5458509
0.41179144 0.28404096 1.427 5392716
0.41450953 0.28404096 1.427 5523019
0.41722763 0.28404096 1.427 5654605
0.41994575 0.28404096 1.427 5588812
0.42809999 0.28404096 1.427 5392968
0.43081811 0.28404096 1.427 5260878
0.4335362 0.28404096 1.427 5260878
0.43625429 0.28404096 1.427 5261391
0.4444086 0.28404096 1.427 5262157
0.45719525 0.28523526 1.4330001 5392716
0.46887141 0.28404096 1.427 5392464
0.47158954 0.28404096 1.427 5326671
0.47430763 0.28404096 1.427 5196364
0.47702572 0.28404096 1.427 5130571
0.47974381 0.28404096 1.427 5131343
0.48246193 0.28404096 1.427 5197136
0.48518002 0.28404096 1.427 5393493
0.48789811 0.28404096 1.427 5327700
0.57215905 0.28404096 1.427 4867660
0.57487714 0.28404096 1.427 4867660
0.58574957 0.28404096 1.427 4801869
0.79079527 0.33937618 1.705 2567765
0.79404283 0.33937618 1.705 1847379
0.7972905 0.33937618 1.705 1584207
0.80053806 0.33937618 1.705 1779785
0.80277336 0.33758476 1.6960001 2435915
0.81028098 0.33937618 1.705 2567501
0.85116005 0.34276 1.7220001 2107980
0.85444003 0.34276 1.7220001 2239819
0.85772008 0.34276 1.7220001 2305612
0.86756003 0.34276 1.7220001 1913424
0.88724005 0.34276 1.7220001 2107980
0.90506572 0.34455144 1.7310001 2042187
0.90836287 0.34455144 1.7310001 2107980
0.91348004 0.34276 1.7220001 2173012
-0.98035711 0.33096859 1.6470001 593436
-0.97250956 0.33257622 1.6550001 527643
-0.96153432 0.33096859 1.6470001 461584
-0.95839715 0.33096859 1.6470001 461584
-0.95526004 0.33096859 1.6470001 593170
-0.94584858 0.33096859 1.6470001 461584
-0.93603146 0.33418384 1.6630001 724756
-0.9214372 0.33579144 1.6710001 922651
-0.91825432 0.33579144 1.6710001 1054237
-0.90870577 0.33579144 1.6710001 593436
-0.90552294 0.33579144 1.6710001 593436
-0.90234005 0.33579144 1.6710001 724756
-0.89915717 0.33579144 1.6710001 724756
-0.89168477 0.33418384 1.6630001 659477
-0.8885172 0.33418384 1.6630001 659477
-0.88534957 0.33418384 1.6630001 659477
-0.88218194 0.33418384 1.6630001 725270
-0.88324291 0.33579144 1.6710001 725022
-0.88006002 0.33579144 1.6710001 659229
-0.87687719 0.33579144 1.6710001 659477
-0.87369436 0.33579144 1.6710001 593684
-0.87051147 0.33579144 1.6710001 658963
-0.86732864 0.33579144 1.6710001 593170
-0.86414582 0.33579144 1.6710001 593170
-0.86096287 0.33579144 1.6710001 658963
-0.77502573 0.33579144 1.6710001 725022
-0.76866007 0.33579144 1.6710001 658963
-0.74956292 0.33579144 1.6710001 658963
-0.71217531 0.33920765 1.6880001 593170
-0.71232003 0.34081525 1.6960001 658963
-0.66999143 0.33579144 1.6710001 659477
-0.65760005 0.33759999 1.6800001 593170
-0.64480001 0.33759999 1.6800001 856608
-0.63816291 0.33579144 1.6710001 659229
-0.62224859 0.33579144 1.6710001 658963
-0.51040006 0.27972573 1.3920001 789266
-0.43350857 0.27972573 1.3920001 5391428
-0.43085715 0.27972573 1.3920001 5325635
-0.42402571 0.27872097 1.3870001 5391678
-0.40699431 0.27972573 1.3920001 5457221
-0.40434289 0.27972573 1.3920001 5391428
-0.40169147 0.27972573 1.3920001 5391678
-0.39904004 0.27972573 1.3920001 5391678
-0.39638859 0.27972573 1.3920001 5391424
-0.38478288 0.28093144 1.3980001 5523271
-0.38212004 0.28093144 1.3980001 5523010
-0.37945718 0.28093144 1.3980001 5523010
-0.37679431 0.28093144 1.3980001 5589566
-0.37413147 0.28093144 1.3980001 5589566
-0.3714686 0.28093144 1.3980001 5589566
-0.36880574 0.28093144 1.3980001 5589566
-0.3661429 0.28093144 1.3980001 5589316
-0.36348003 0.28093144 1.3980001 5589316
-0.36081716 0.28093144 1.3980001 5589316
-0.35815433 0.28093144 1.3980001 5589316
-0.33951432 0.28093144 1.3980001 5654857
-0.33685145 0.28093144 1.3980001 5589064
-0.33418861 0.28093144 1.3980001 5654321
-0.32492572 0.28213716 1.404 5851970
-0.32225144 0.28213716 1.404 5917763
-0.31957713 0.28213716 1.404 5852497
-0.27411428 0.28213716 1.404 5917520
-0.2672286 0.28334287 1.4100001 5917511
-0.25470003 0.28434762 1.4150001 5983561
-0.25200477 0.28434762 1.4150001 6114122
-0.24930954 0.28434762 1.4150001 6114122
-0.21696669 0.28434762 1.4150001 6114874
-0.21427144 0.28434762 1.4150001 6180165
-0.21157621 0.28434762 1.4150001 6180165
-0.20888096 0.28434762 1.4150001 6245958
-0.036385715 0.28434762 1.4150001 6508621
-0.028420003 0.28555337 1.4210001 6574412
-0.014886668 0.28555337 1.4210001 6246476
-0.012180001 0.28555337 1.4210001 6246476
-0.0094733341 0.28555337 1.4210001 6246476
-0.0067666671 0.28555337 1.4210001 6378062
-0.0040600006 0.28555337 1.4210001 6312269
-0.0013533335 0.28555337 1.4210001 6312269
0.0013533335 0.28555337 1.4210001 6378062
0.017593335 0.28555337 1.4210001 6443603
0.020300003 0.28555337 1.4210001 6443603
0.023006668 0.28555337 1.4210001 6378062
0.025713336 0.28555337 1.4210001 6378062
0.028420003 0.28555337 1.4210001 6378062
0.031126669 0.28555337 1.4210001 6443855
0.049861908 0.28434762 1.4150001 6442826
0.057947624 0.28434762 1.4150001 6508621
0.060642861 0.28434762 1.4150001 6377292
0.063338101 0.28434762 1.4150001 6048327
0.066033341 0.28434762 1.4150001 6770258
0.068728574 0.28434762 1.4150001 9665150
0.071423814 0.28434762 1.4150001 7955552
0.081195243 0.29037622 1.4450001 65792
0.093774289 0.28675905 1.427 7232573
0.15563335 0.28555337 1.4210001 6179402
0.16646002 0.28555337 1.4210001 6245958
0.16916668 0.28555337 1.4210001 6311499
0.19162571 0.28675905 1.427 5983288
0.20249809 0.28675905 1.427 5983061
0.2052162 0.28675905 1.427 5917268
0.20880857 0.28796476 1.4330001 5851214
0.21426764 0.28796476 1.4330001 5917520
0.26501429 0.28675905 1.427 5983833
0.26773238 0.28675905 1.427 5852497
0.33568478 0.28675905 1.427 5786956
0.36286572 0.28675905 1.427 5590354
0.36558381 0.28675905 1.427 5590354
0.3683019 0.28675905 1.427 5524561
0.37258002 0.28796476 1.4330001 5524815
0.43897238 0.28675905 1.427 5392464
0.4416905 0.28675905 1.427 5392716
0.4444086 0.28675905 1.427 5458509
0.44712666 0.28675905 1.427 5392464
0.44984475 0.28675905 1.427 5326671
0.45719525 0.28796476 1.4330001 5326923
0.49061623 0.28675905 1.427 5327950
0.49333432 0.28675905 1.427 5327950
0.49605241 0.28675905 1.427 5393743
0.49877051 0.28675905 1.427 5459536
0.50148857 0.28675905 1.427 5327950
0.50420666 0.28675905 1.427 5196364
0.50692475 0.28675905 1.427 5262159
0.50964284 0.28675905 1.427 5262159
0.51236093 0.28675905 1.427 5262159
0.57759529 0.28675905 1.427 4867660
0.57787335 0.28555337 1.4210001 4867660
0.61021239 0.28675905 1.427 4867912
0.61293048 0.28675905 1.427 4867912
0.61564857 0.28675905 1.427 4933453
0.64282954 0.28675905 1.427 5395548
0.64554763 0.28675905 1.427 5724513
0.64826572 0.28675905 1.427 5986929
0.65098381 0.28675905 1.427 4013139
0.66190958 0.28796476 1.4330001 2436690
0.79079527 0.3426238 1.705 2370897
0.79954284 0.34081525 1.6960001 2107980
0.81246483 0.34081525 1.6960001 2305099
0.82002383 0.3426238 1.705 2239819
0.82327139 0.3426238 1.705 2042440
0.86428005 0.34604004 1.7220001 2436690
0.88724005 0.34604004 1.7220001 2107980
0.90506572 0.34784859 1.7310001 2107980
0.91020006 0.34604004 1.7220001 2634064
-0.97250956 0.33572859 1.6550001 461850
-0.94125432 0.33248287 1.6390001 658963
-0.9283762 0.33572859 1.6550001 724756
-0.8885172 0.33735144 1.6630001 725270
-0.8536734 0.33735144 1.6630001 593170
-0.85050577 0.33735144 1.6630001 658963
-0.77502573 0.33897433 1.6710001 659229
-0.7718429 0.33897433 1.6710001 527643
-0.74597436 0.33735144 1.6630001 659477
-0.71773434 0.33897433 1.6710001 657680
-0.71455145 0.33897433 1.6710001 855059
-0.71136862 0.33897433 1.6710001 658963
-0.70560002 0.34080002 1.6800001 724756
-0.68908858 0.33897433 1.6710001 790549
-0.68590575 0.33897433 1.6710001 659477
-0.66995144 0.33735144 1.6630001 725270
-0.65440005 0.34080002 1.6800001 461584
-0.63816291 0.33897433 1.6710001 593436
-0.61926955 0.33735144 1.6630001 724756
-0.61906576 0.33897433 1.6710001 593170
-0.5077486 0.28237715 1.3920001 789516
-0.43616 0.28237715 1.3920001 5457217
-0.42555431 0.28237715 1.3920001 5325122
-0.42025146 0.28237715 1.3920001 5456958
-0.41760001 0.28237715 1.3920001 5391428
-0.41494858 0.28237715 1.3920001 5391428
-0.41081622 0.28136289 1.3870001 5391678
-0.40817431 0.28136289 1.3870001 5391678
-0.38744572 0.28359431 1.3980001 5654087
-0.38478288 0.28359431 1.3980001 5588294
-0.33685145 0.28359431 1.3980001 5588546
-0.32492572 0.28481144 1.404 5785925
-0.30620572 0.28481144 1.404 5851718
-0.30353144 0.28481144 1.404 5851979
-0.30085716 0.28481144 1.404 5786186
-0.29945716 0.28602859 1.4100001 5851718
-0.29677144 0.28602859 1.4100001 5917511
-0.29283428 0.28481144 1.404 5917511
-0.29016 0.28481144 1.404 5983304
-0.27411428 0.28481144 1.404 5786186
-0.2699143 0.28602859 1.4100001 5851970
-0.25739524 0.28704289 1.4150001 6048077
-0.25200477 0.28704289 1.4150001 6048579
-0.24661429 0.28704289 1.4150001 6048329
-0.24391906 0.28704289 1.4150001 6048329
-0.24122383 0.28704289 1.4150001 5917770
-0.22505239 0.28704289 1.4150001 6113868
-0.22235714 0.28704289 1.4150001 6245454
-0.21966192 0.28704289 1.4150001 6180165
-0.087595239 0.28704289 1.4150001 6574414
-0.084900007 0.28704289 1.4150001 6574412
-0.082204767 0.28704289 1.4150001 6574412
-0.039080955 0.28704289 1.4150001 6442824
-0.031126669 0.28826004 1.4210001 6508619
0.071726672 0.28826004 1.4210001 7169386
0.081195243 0.29312858 1.4450001 0
0.094168574 0.2906943 1.4330001 7034965
0.1372638 0.28947717 1.427 6245706
0.13998191 0.28947717 1.427 6179913
0.15022002 0.28826004 1.4210001 6245706
0.15563335 0.28826004 1.4210001 6179915
0.15834002 0.28826004 1.4210001 6114372
0.16104668 0.28826004 1.4210001 6180165
0.16375335 0.28826004 1.4210001 6049354
0.18890762 0.28947717 1.427 6048329
0.2052162 0.28947717 1.427 6048075
0.21516477 0.29191142 1.439 5852497
0.23511524 0.28947717 1.427 5983565
0.23783334 0.28947717 1.427 5983565
0.24055144 0.28947717 1.427 5852749
0.24326953 0.28947717 1.427 5852749
0.24598764 0.28947717 1.427 5786956
0.24870573 0.28947717 1.427 5852749
0.2622962 0.28947717 1.427 6048852
0.26501429 0.28947717 1.427 6048852
0.27704668 0.2906943 1.4330001 5852749
0.33568478 0.28947717 1.427 5786956
0.44712666 0.28947717 1.427 5392466
0.45719525 0.2906943 1.4330001 5326671
0.46265429 0.2906943 1.4330001 5260878
0.53138763 0.28947717 1.427 4736074
0.53635144 0.2906943 1.4330001 4997710
0.53682387 0.28947717 1.427 5129296
0.53954196 0.28947717 1.427 4998219
0.54226005 0.28947717 1.427 5129805
0.54497808 0.28947717 1.427 4933455
0.54769617 0.28947717 1.427 4933455
0.55041426 0.28947717 1.427 4933453
0.55313236 0.28947717 1.427 4933453
0.55585045 0.28947717 1.427 4933455
0.5585686 0.28947717 1.427 4933455
0.56128669 0.28947717 1.427 4735822
0.58031338 0.28947717 1.427 4867660
0.58303148 0.28947717 1.427 4801615
0.60205811 0.28947717 1.427 4933201
0.6047762 0.28947717 1.427 4999248
0.60749429 0.28947717 1.427 4999248
0.61836672 0.28947717 1.427 4736594
0.62108481 0.28947717 1.427 4867662
0.6238029 0.28947717 1.427 4867662
0.63739336 0.28947717 1.427 5132376
0.64011145 0.28947717 1.427 5329755
0.78985149 0.34404573 1.6960001 2436685
0.84344858 0.3474943 1.7130001 2698830
0.85116005 0.34931999 1.7220001 2830416
0.85444003 0.34931999 1.7220001 2502478
0.85772008 0.34931999 1.7220001 2436685
0.86100006 0.34931999 1.7220001 2567765
0.86428005 0.34931999 1.7220001 2567765
0.86955148 0.3474943 1.7130001 2304329
0.86415243 0.34404573 1.6960001 2435915
0.88586575 0.3474943 1.7130001 2042187
0.89380002 0.34931999 1.7220001 1779785
0.90176862 0.35114571 1.7310001 1977164
0.90506572 0.35114571 1.7310001 2107984
0.90692002 0.34931999 1.7220001 2370897
0.90544289 0.3474943 1.7130001 2502483
-0.9678086 0.33724287 1.6470001 658963
-0.94125432 0.33560476 1.6390001 593170
-0.9283762 0.33888096 1.6550001 724756
-0.88739532 0.33888096 1.6550001 659477
-0.77131528 0.34051907 1.6630001 659229
-0.74238575 0.33888096 1.6550001 659477
-0.71773434 0.34215716 1.6710001 461584
-0.71136862 0.34215716 1.6710001 593170
-0.69863719 0.34215716 1.6710001 659477
-0.6954543 0.34215716 1.6710001 659477
-0.69227147 0.34215716 1.6710001 659229
-0.68908858 0.34215716 1.6710001 659229
-0.66995144 0.34051907 1.6630001 725270
-0.65089428 0.34215716 1.6710001 593170
-0.63510764 0.34051907 1.6630001 462098
-0.61629051 0.33888096 1.6550001 396041
-0.61293435 0.34051907 1.6630001 855059
-0.6068334 0.33888096 1.6550001 920852
-0.51212573 0.28748572 1.404 855068
-0.49979433 0.28502861 1.3920001 4406598
-0.45837051 0.28400478 1.3870001 5456715
-0.45572859 0.28400478 1.3870001 5325129
-0.45308667 0.28400478 1.3870001 5063740
-0.45044479 0.28400478 1.3870001 5063740
-0.44941717 0.28502861 1.3920001 5391165
-0.44676575 0.28502861 1.3920001 5456958
-0.44411433 0.28502861 1.3920001 5457221
-0.43616 0.28502861 1.3920001 5391424
-0.42402571 0.28400478 1.3870001 5325122
-0.39809719 0.28625718 1.3980001 5588026
-0.39277145 0.28625718 1.3980001 5523264
-0.39010862 0.28625718 1.3980001 5523264
-0.38744572 0.28625718 1.3980001 5523010
-0.35969144 0.28748572 1.404 5457980
-0.33829716 0.28748572 1.404 5589316
-0.33027431 0.28748572 1.404 5654339
-0.3276 0.28748572 1.404 5720132
-0.32492572 0.28748572 1.404 5654857
-0.31155431 0.28748572 1.404 5589316
-0.30888 0.28748572 1.404 5654339
-0.30620572 0.28748572 1.404 5785925
-0.29677144 0.28871432 1.4100001 5719882
-0.27678859 0.28748572 1.404 5720902
-0.27411428 0.28748572 1.404 5589316
-0.26548097 0.28973809 1.4150001 5983561
-0.26009047 0.28973809 1.4150001 5982536
-0.25739524 0.28973809 1.4150001 5851979
-0.23852858 0.28973809 1.4150001 5917770
-0.23583335 0.28973809 1.4150001 5917007
-0.2331381 0.28973809 1.4150001 5785421
-0.23044287 0.28973809 1.4150001 5981771
-0.22774762 0.28973809 1.4150001 6113357
-0.10376667 0.28973809 1.4150001 6246476
-0.10107143 0.28973809 1.4150001 6312269
-0.098376192 0.28973809 1.4150001 6312269
-0.090290479 0.28973809 1.4150001 6442576
-0.087595239 0.28973809 1.4150001 6442576
-0.039080955 0.28973809 1.4150001 6377292
-0.031126669 0.29096669 1.4210001 6442828
0.0013533335 0.29096669 1.4210001 6312278
0.0040600006 0.29096669 1.4210001 6312278
0.0067666671 0.29096669 1.4210001 6312269
0.0094733341 0.29096669 1.4210001 6312269
0.012180001 0.29096669 1.4210001 6312269
0.014886668 0.29096669 1.4210001 6312269
0.047366671 0.29096669 1.4210001 6574412
0.050073337 0.29096669 1.4210001 6574412
0.052780006 0.29096669 1.4210001 6574412
0.055486672 0.29096669 1.4210001 6508621
0.071726672 0.29096669 1.4210001 7824486
0.081588566 0.29731429 1.452 65792
0.094168574 0.29342383 1.4330001 7232092
0.096898101 0.29342383 1.4330001 5982025
0.11008286 0.29219526 1.427 6376783
0.13182762 0.29219526 1.427 6114122
0.13454573 0.29219526 1.427 6114122
0.13998191 0.29219526 1.427 6180165
0.1427 0.29219526 1.427 6179661
0.15292668 0.29096669 1.4210001 6179915
0.15563335 0.29096669 1.4210001 6179915
0.18970191 0.29342383 1.4330001 6048077
0.2052162 0.29219526 1.427 6048329
0.2179057 0.29465237 1.439 5917772
0.22967905 0.29219526 1.427 5983561
0.23239715 0.29219526 1.427 5917768
0.23511524 0.29219526 1.427 5852227
0.25142381 0.29219526 1.427 5851979
0.2541419 0.29219526 1.427 5917772
0.25685999 0.29219526 1.427 5917772
0.25957811 0.29219526 1.427 5917772
0.2622962 0.29219526 1.427 5917520
0.27977622 0.29342383 1.4330001 5852497
0.31394002 0.29219526 1.427 5590354
0.31798953 0.29342383 1.4330001 5851984
0.3193762 0.29219526 1.427 5851984
0.33568478 0.29219526 1.427 5786443
0.35893241 0.29342383 1.4330001 5720398
0.44712666 0.29219526 1.427 5392214
0.45719525 0.29342383 1.4330001 5326414
0.46538383 0.29342383 1.4330001 5260873
0.46811336 0.29342383 1.4330001 5260873
0.4708429 0.29342383 1.4330001 5326414
0.4735724 0.29342383 1.4330001 5392207
0.47630194 0.29342383 1.4330001 5261130
0.47903144 0.29342383 1.4330001 5261130
0.48176098 0.29342383 1.4330001 5129805
0.48449048 0.29342383 1.4330001 5129805
0.52866954 0.29219526 1.427 4933455
0.53908098 0.29342383 1.4330001 4867408
0.56400478 0.29219526 1.427 4735822
0.56672287 0.29219526 1.427 4736074
0.56944096 0.29219526 1.427 4736074
0.59662193 0.29219526 1.427 4735570
0.59934002 0.29219526 1.427 4735570
0.61564857 0.29219526 1.427 4802137
0.63195711 0.29219526 1.427 4933973
0.6346752 0.29219526 1.427 5065559
0.65099144 0.29342383 1.4330001 5790304
0.65372097 0.29342383 1.4330001 2961205
0.65645051 0.29342383 1.4330001 2369873
0.77920002 0.34400001 1.6800001 2370645
0.78934097 0.3456381 1.6880001 2370897
0.79577148 0.3456381 1.6880001 2502478
0.80277336 0.34727621 1.6960001 2567513
0.80600387 0.34727621 1.6960001 2370134
0.80923432 0.34727621 1.6960001 2174026
0.84344858 0.35075715 1.7130001 2239819
0.86007619 0.3456381 1.6880001 1515826
0.9012143 0.34911907 1.705 2107980
-0.96467143 0.34038001 1.6470001 593170
-0.96153432 0.34038001 1.6470001 395791
-0.94125432 0.3387267 1.6390001 789266
-0.92522383 0.34203333 1.6550001 658963
-0.88749719 0.33728001 1.6320001 593170
-0.79526573 0.34038001 1.6470001 593170
-0.79212862 0.34038001 1.6470001 658963
-0.78899145 0.34038001 1.6470001 658963
-0.78585428 0.34038001 1.6470001 658963
-0.78651905 0.34203333 1.6550001 593436
-0.77958 0.34038001 1.6470001 527643
-0.77644289 0.34038001 1.6470001 658963
-0.77706194 0.34203333 1.6550001 724756
-0.76760477 0.34203333 1.6550001 725022
-0.74238575 0.34203333 1.6550001 659477
-0.71086192 0.34203333 1.6550001 658963
-0.70770955 0.34203333 1.6550001 658963
-0.70455718 0.34203333 1.6550001 724756
-0.70140481 0.34203333 1.6550001 724756
-0.69863719 0.34534001 1.6710001 659477
-0.68262196 0.3436867 1.6630001 659229
-0.67945433 0.3436867 1.6630001 659229
-0.66988099 0.34203333 1.6550001 659229
-0.66350573 0.34038001 1.6470001 594188
-0.64461052 0.3436867 1.6630001 659477
-0.50677717 0.29016 1.404 1774374
-0.5019486 0.28892002 1.3980001 4142922
-0.47593144 0.28768003 1.3920001 5063494
-0.47328001 0.28768003 1.3920001 4997701
-0.47062859 0.28768003 1.3920001 5391165
-0.4662962 0.28664666 1.3870001 5325372
-0.46365431 0.28664666 1.3870001 5455933
-0.46101239 0.28664666 1.3870001 5587519
-0.45837051 0.28664666 1.3870001 5391428
-0.44411433 0.28768003 1.3920001 5390915
-0.43804005 0.28892002 1.3980001 5456958
-0.43350857 0.28768003 1.3920001 5390915
-0.42666766 0.28664666 1.3870001 5391165
-0.42402571 0.28664666 1.3870001 5391165
-0.40608576 0.28892002 1.3980001 5324870
-0.40076002 0.28892002 1.3980001 5390915
-0.39809719 0.28892002 1.3980001 5391678
-0.39543429 0.28892002 1.3980001 5391678
-0.3778286 0.28768003 1.3920001 5391424
-0.37679431 0.28892002 1.3980001 5391678
-0.37413147 0.28892002 1.3980001 5391678
-0.3714686 0.28892002 1.3980001 5391424
-0.36880574 0.28892002 1.3980001 5457217
-0.3661429 0.28892002 1.3980001 5523264
-0.35969144 0.29016 1.404 5654596
-0.34632 0.29016 1.404 5457471
-0.34217718 0.28892002 1.3980001 5523264
-0.33951432 0.28892002 1.3980001 5588294
-0.33829716 0.29016 1.404 5719880
-0.33562288 0.29016 1.404 5719612
-0.33294857 0.29016 1.404 5653819
-0.33027431 0.29016 1.404 5653569
-0.31422856 0.29016 1.404 5654857
-0.29677144 0.29140002 1.4100001 5785675
-0.27678859 0.29016 1.404 5720902
-0.26548097 0.29243335 1.4150001 5917772
-0.25200477 0.29243335 1.4150001 5982273
-0.18192858 0.29243335 1.4150001 6114122
-0.17923334 0.29243335 1.4150001 6245708
-0.17653809 0.29243335 1.4150001 6377035
-0.11185239 0.29243335 1.4150001 6180681
-0.10962001 0.29367337 1.4210001 6246474
-0.1064619 0.29243335 1.4150001 6246474
-0.095680952 0.29243335 1.4150001 6312267
-0.092985712 0.29243335 1.4150001 6312267
-0.090290479 0.29243335 1.4150001 6246476
-0.079846673 0.29367337 1.4210001 6442828
-0.077140011 0.29367337 1.4210001 6442828
-0.074433342 0.29367337 1.4210001 6246476
-0.071726672 0.29367337 1.4210001 6246476
-0.039080955 0.29243335 1.4150001 6312269
-0.031126669 0.29367337 1.4210001 6312269
-0.028420003 0.29367337 1.4210001 6312269
-0.025713336 0.29367337 1.4210001 6246476
-0.023006668 0.29367337 1.4210001 6246476
-0.020300003 0.29367337 1.4210001 6180683
-0.017593335 0.29367337 1.4210001 6312269
-0.014886668 0.29367337 1.4210001 6312269
-0.012180001 0.29367337 1.4210001 6378062
-0.0094733341 0.29367337 1.4210001 6508878
-0.0067666671 0.29367337 1.4210001 6508878
-0.0040600006 0.29367337 1.4210001 6508878
-0.0013533335 0.29367337 1.4210001 6508878
0.014949524 0.29491332 1.427 6246476
0.017593335 0.29367337 1.4210001 6246476
0.020300003 0.29367337 1.4210001 6246476
0.058193337 0.29367337 1.4210001 6508621
0.060900006 0.29367337 1.4210001 6377292
0.063606672 0.29367337 1.4210001 6048327
0.066313341 0.29367337 1.4210001 6705235
0.071726672 0.29367337 1.4210001 7628906
0.083947621 0.29863334 1.4450001 393728
0.096898101 0.29615337 1.4330001 5916741
0.099627629 0.29615337 1.4330001 5981503
0.10235715 0.29615337 1.4330001 6178882
0.10508667 0.29615337 1.4330001 6114122
0.10736476 0.29491332 1.427 6311501
0.11551905 0.29491332 1.427 6114890
0.11873429 0.29615337 1.4330001 6114890
0.12146382 0.29615337 1.4330001 6115142
0.12419335 0.29615337 1.4330001 6115142
0.12692286 0.29615337 1.4330001 6245454
0.1296524 0.29615337 1.4330001 6113868
0.13238192 0.29615337 1.4330001 6114122
0.13998191 0.29491332 1.427 6180165
0.18970191 0.29615337 1.4330001 6113868
0.2052162 0.29491332 1.427 6048075
0.2179057 0.29739332 1.439 5917772
0.23064478 0.29615337 1.4330001 5917772
0.28094763 0.29739332 1.439 5656147
0.29491332 0.29491332 1.427 5525063
0.29763141 0.29491332 1.427 5590856
0.30034953 0.29491332 1.427 5852749
0.30306762 0.29491332 1.427 5852749
0.30578572 0.29491332 1.427 5656397
0.30850384 0.29491332 1.427 5590604
0.31122193 0.29491332 1.427 5721940
0.31798953 0.29615337 1.4330001 5590608
0.32209429 0.29491332 1.427 5590604
0.32481238 0.29491332 1.427 5590604
0.32753047 0.29491332 1.427 5590608
0.33024859 0.29491332 1.427 5524815
0.33296669 0.29491332 1.427 5654857
0.33568478 0.29491332 1.427 5786443
0.35620287 0.29615337 1.4330001 5654605
0.36043525 0.29739332 1.439 5720398
0.37373811 0.29491332 1.427 5459018
0.44712666 0.29491332 1.427 5392466
0.45719525 0.29615337 1.4330001 5458000
0.48722002 0.29615337 1.4330001 5196100
0.48994952 0.29615337 1.4330001 5261893
0.49267909 0.29615337 1.4330001 5196112
0.49540859 0.29615337 1.4330001 5261905
0.49813813 0.29615337 1.4330001 5261907
0.50086761 0.29615337 1.4330001 5130321
0.5035972 0.29615337 1.4330001 5326923
0.50632668 0.29615337 1.4330001 5326923
0.50905621 0.29615337 1.4330001 5326671
0.52595145 0.29491332 1.427 5065039
0.52866954 0.29491332 1.427 5065041
0.57215905 0.29491332 1.427 4997967
0.57487714 0.29491332 1.427 5063760
0.59390378 0.29491332 1.427 4866899
0.59662193 0.29491332 1.427 4801106
0.62096667 0.29615337 1.4330001 4802387
0.62923908 0.29491332 1.427 4868180
0.63195711 0.29491332 1.427 5065557
0.64553237 0.29615337 1.4330001 5395546
0.64826196 0.29615337 1.4330001 5921890
0.77600002 0.34720004 1.6800001 2370645
0.77920002 0.34720004 1.6800001 2173266
0.80863237 0.34885335 1.6880001 2370897
