# .PCD v0.7 - Point Cloud Data file format
VERSION 0.7
FIELDS x y z rgba
SIZE 4 4 4 4
TYPE F F F U
COUNT 1 1 1 1
WIDTH 1225
HEIGHT 1
VIEWPOINT 0 0 0 1 0 0 0
POINTS 1225
DATA ascii
-0.12829049 -1.5881478 4.6450005 4017246
0.071520008 -1.2226515 3.5760002 14082047
0.16221334 -0.75629336 2.2120001 918575
0.62375718 -1.5881478 4.6450005 11186662
0.99988955 -1.6096877 4.7080002 6586022
1.1708914 -1.2623124 3.6920002 8554905
1.165481 -1.2489781 3.6530001 9015456
1.2688801 -1.2759887 3.7320001 3094054
1.2907143 -1.2356439 3.6140001 4082496
2.0772381 -1.7546554 5.1320004 789516
2.1281002 -1.6790943 4.9110003 460051
2.1687915 -1.7037115 4.9830003 394758
2.1782827 -1.7037115 4.9830003 526344
2.2198248 -1.7286706 5.0560002 723203
2.2629678 -1.7546554 5.1320004 460032
-1.3451047 -0.91119999 2.6800001 3887179
-1.6063868 -1.5374801 4.5220003 6716063
-1.678003 -1.7989401 5.2910004 4675449
-1.6679249 -1.7989401 5.2910004 4217469
-0.99802864 -1.82716 5.3740001 3686747
-0.51320004 -1.7448801 5.1320004 329233
-0.36949432 -1.6697401 4.9110003 3027241
-0.36014003 -1.6697401 4.9110003 395521
-0.12829049 -1.5793002 4.6450005 5001572
0.078331426 -1.2158401 3.5760002 2708389
0.16118668 -0.74732006 2.1980002 4407144
0.62375718 -1.5793002 4.6450005 10136258
0.99988955 -1.60072 4.7080002 2241885
1.023 -1.6231601 4.7740002 602731
1.1708914 -1.25528 3.6920002 8685721
1.1724391 -1.2420201 3.6530001 9210507
1.2688801 -1.2688801 3.7320001 3093804
1.2759887 -1.2688801 3.7320001 3093804
1.2838304 -1.22876 3.6140001 2568498
2.0368457 -1.71904 5.0560002 658702
2.0772381 -1.7448801 5.1320004 855309
2.1281002 -1.6697401 4.9110003 656154
1.309342 -0.91834009 2.7010002 12830162
-1.3981335 -0.92773336 2.7440002 5463131
-1.3666867 -0.92063338 2.723 3493702
-1.0337143 -0.90609527 2.6800001 396055
-1.6412334 -1.5704526 4.6450005 6846884
-1.6679249 -1.7888621 5.2910004 4086653
-1.6578468 -1.7888621 5.2910004 7310510
-0.99802864 -1.8169239 5.3740001 3884122
-0.51320004 -1.7351048 5.1320004 460562
-0.36014003 -1.6603857 4.9110003 789516
-0.12829049 -1.5704526 4.6450005 3555159
-0.12106286 -1.5917524 4.7080002 3029819
0.071520008 -1.2090286 3.5760002 67118
0.16118668 -0.74313337 2.1980002 4672611
0.16748001 -0.75260001 2.2260001 3422544
0.18568286 -0.75767148 2.2410002 527639
0.63221711 -1.5917524 4.7080002 8955353
0.62402475 -1.5491525 4.5820003 11652863
1.0088571 -1.5917524 4.7080002 269135
1.0178248 -1.5917524 4.7080002 1453409
1.2759887 -1.2617714 3.7320001 3093554
1.2838304 -1.2218761 3.6140001 2634541
2.1187458 -1.6603857 4.9110003 722197
-1.3981335 -0.92250675 2.7440002 6055268
-1.3556448 -0.90805054 2.7010002 3821134
-1.11678 -0.89393055 2.6590002 1581862
-1.6838534 -1.8066876 5.3740001 7178674
-1.0139999 -1.8356 5.46 3030365
-0.51320004 -1.7253296 5.1320004 526612
-0.36542001 -1.6752373 4.9830003 591885
-0.12106286 -1.5827848 4.7080002 812
0.072280005 -1.2149924 3.6140001 1124918
0.15378667 -0.74365336 2.2120001 4078162
0.15800001 -0.74365336 2.2120001 4999264
0.62402475 -1.5404248 4.5820003 11847423
0.63275236 -1.5404248 4.5820003 12305645
0.64148003 -1.5404248 4.5820003 7568549
1.0139067 -1.6049733 4.7740002 4477055
1.0088571 -1.5827848 4.7080002 3688811
1.165481 -1.2281039 3.6530001 9145229
1.2976848 -1.2281039 3.6530001 2961968
2.0368457 -1.699779 5.0560002 987174
2.1187458 -1.6510315 4.9110003 722197
-1.40336 -0.91728002 2.7440002 6582387
-1.3981335 -0.91728002 2.7440002 5924709
-1.3556448 -0.90290576 2.7010002 4083795
-1.3505001 -0.90290576 2.7010002 3601
-1.6903962 -1.5738171 4.7080002 7176101
-1.6838534 -1.7964514 5.3740001 6915483
-1.6736171 -1.7964514 5.3740001 8491441
-1.0139999 -1.8252 5.46 3883822
-0.89191151 -1.7687058 5.2910004 2700396
-0.65003717 -1.7687058 5.2910004 4081788
-0.48387432 -1.7155544 5.1320004 1183272
-0.36542001 -1.6657457 4.9830003 921102
-0.12106286 -1.5738171 4.7080002 772
-0.11209524 -1.5738171 4.7080002 2961457
0.059143811 -1.2211457 3.6530001 5728645
0.072280005 -1.2081085 3.6140001 2174249
0.15378667 -0.73944002 2.2120001 3946326
0.64148003 -1.5316973 4.5820003 7635112
1.0139067 -1.59588 4.7740002 4806020
1.1461543 -1.2081085 3.6140001 9342622
1.1530381 -1.2081085 3.6140001 8816278
1.2759714 -1.2615943 3.7740002 2765855
1.2703314 -1.1954057 3.5760002 2503984
1.2706696 -1.1830372 3.5390003 5727098
2.0074372 -1.6657457 4.9830003 986395
2.1281002 -1.6416773 4.9110003 787990
-1.3556448 -0.89776099 2.7010002 4806237
-1.0572486 -0.89776099 2.7010002 725300
-1.6903962 -1.5648495 4.7080002 7308442
-1.6423905 -1.7317048 5.21 5531509
-1.6324667 -1.7317048 5.21 6847369
-1.6477686 -1.7586277 5.2910004 7373470
-1.663381 -1.7862152 5.3740001 9018295
-1.0139999 -1.8148 5.46 2964278
-0.89191151 -1.7586277 5.2910004 9015227
-0.65003717 -1.7586277 5.2910004 7435932
-0.48387432 -1.7057792 5.1320004 1381695
-0.37077335 -1.6805182 5.0560002 855309
-0.11209524 -1.5648495 4.7080002 2699090
0.059143811 -1.2141877 3.6530001 6252670
0.073060006 -1.2141877 3.6530001 2567210
0.073733337 -0.73522669 2.2120001 6183788
0.07794667 -0.73522669 2.2120001 6050653
0.082680002 -0.73988003 2.2260001 5787481
0.086373344 -0.73522669 2.2120001 5328720
0.09001334 -0.73057336 2.1980002 6249822
0.15378667 -0.73522669 2.2120001 4341084
0.64148003 -1.5229696 4.5820003 7898034
1.0139067 -1.5867867 4.7740002 4937860
1.1341029 -1.1885943 3.5760002 8948368
1.2759714 -1.2544057 3.7740002 2831648
1.2759887 -1.2404457 3.7320001 3029045
1.2571877 -1.1762962 3.5390003 3226678
1.2026181 -1.0466677 3.1490002 4744063
1.2086163 -1.0466677 3.1490002 10731226
1.9979457 -1.6562544 4.9830003 789275
2.0074372 -1.6562544 4.9830003 920861
2.1281002 -1.6323229 4.9110003 722197
-1.3770601 -0.89988667 2.723 5726303
-1.3718734 -0.89988667 2.723 6121061
-1.6903962 -1.5558819 4.7080002 6978981
-1.617802 -1.696004 5.1320004 6123378
-1.0139999 -1.8044 5.46 2768384
-0.92039996 -1.8044 5.46 8359346
-0.84759998 -1.8044 5.46 9081260
-0.65003717 -1.7485497 5.2910004 8487591
-0.53092384 -1.7217809 5.21 197640
-0.37077335 -1.6708877 5.0560002 922133
-0.11209524 -1.5558819 4.7080002 2963015
0.059143811 -1.2072296 3.6530001 5661053
0.073060006 -1.2072296 3.6530001 2895646
0.14536001 -0.73101336 2.2120001 4213385
0.14957334 -0.73101336 2.2120001 4871315
0.64148003 -1.5142419 4.5820003 7634862
0.65020764 -1.5142419 4.5820003 6583712
0.65893525 -1.5142419 4.5820003 5399438
1.0139067 -1.5776933 4.7740002 5135750
1.1204801 -1.181783 3.5760002 4737364
1.1272916 -1.181783 3.5760002 8487565
1.1341029 -1.181783 3.5760002 8554119
1.2759714 -1.2472172 3.7740002 2898726
1.2706696 -1.1695553 3.5390003 6055543
1.9979457 -1.646763 4.9830003 985362
2.1281002 -1.6229687 4.9110003 656404
-1.3876801 -0.90160006 2.7440002 6186850
-1.6903962 -1.5469142 4.7080002 6913181
-1.617802 -1.6862288 5.1320004 3821428
-1.0139999 -1.794 5.46 1585152
-1.0197753 -1.8229144 5.5480003 5598521
-0.8547219 -1.7657429 5.3740001 1574
-0.8444857 -1.7657429 5.3740001 133160
-0.84759998 -1.794 5.46 859945
-0.66985708 -1.7118572 5.21 3424637
-0.65993333 -1.7118572 5.21 4477325
-0.65000951 -1.7118572 5.21 5330317
-0.62952572 -1.7657429 5.3740001 7041174
-0.61928952 -1.7657429 5.3740001 7238553
-0.58956861 -1.7384715 5.2910004 7896746
-0.5408476 -1.7118572 5.21 294
-0.34143144 -1.6136143 4.9110003 526094
-0.11366667 -1.5686001 4.7740002 3423566
0.017395239 -1.2002715 3.6530001 2370897
0.052185714 -1.2002715 3.6530001 6515341
0.059143811 -1.2002715 3.6530001 5066614
0.073060006 -1.2002715 3.6530001 2895646
0.14536001 -0.72680008 2.2120001 7104684
0.65893525 -1.5055143 4.5820003 6254481
0.95567435 -1.5055143 4.5820003 10465242
0.99092191 -1.5469142 4.7080002 9411775
1.1136686 -1.1749715 3.5760002 2176559
1.1204801 -1.1749715 3.5760002 4738911
1.234183 -1.2130858 3.6920002 857887
1.2577438 -1.1509857 3.5030003 6317677
1.9979457 -1.6372715 4.9830003 789266
2.1281002 -1.6136143 4.9110003 590611
-1.3929068 -0.89637339 2.7440002 6647392
-1.6903962 -1.5379468 4.7080002 6781602
-1.6423905 -1.7019334 5.21 3099226
-1.6324667 -1.7019334 5.21 5665153
-1.2641696 -1.7555066 5.3740001 10333395
-1.2129886 -1.7555066 5.3740001 11517158
-1.2027524 -1.7555066 5.3740001 11583203
-1.0139999 -1.7836 5.46 2172464
-0.90999997 -1.7836 5.46 1838122
-0.88543051 -1.7555066 5.3740001 1574950
-0.87519431 -1.7555066 5.3740001 1443120
-0.87182862 -1.8123467 5.5480003 65793
-0.86126095 -1.8123467 5.5480003 788
-0.68120003 -1.7836 5.46 1385029
-0.67080003 -1.7836 5.46 1911373
-0.63960004 -1.7836 5.46 4673120
-0.59707046 -1.8123467 5.5480003 3752046
-0.24000953 -1.4967867 4.5820003 3750230
-0.23128191 -1.4967867 4.5820003 8355740
-0.2225543 -1.4967867 4.5820003 9081018
-0.21970668 -1.5379468 4.7080002 8620467
-0.21073905 -1.5379468 4.7080002 8751040
-0.11366667 -1.5595067 4.7740002 3357773
-0.10457333 -1.5595067 4.7740002 5792133
-0.017395239 -1.1933134 3.6530001 3553624
0.059143811 -1.1933134 3.6530001 5328497
0.066101909 -1.1933134 3.6530001 4802153
0.66799533 -1.5173668 4.6450005 6253711
0.67684293 -1.5173668 4.6450005 6252178
0.94316006 -1.4771868 4.5220003 10662110
1.1068572 -1.1681601 3.5760002 1124623
1.1136686 -1.1681601 3.5760002 2703655
1.2577438 -1.1443133 3.5030003 6251634
1.9690771 -1.6042601 4.9110003 526094
1.9784315 -1.6042601 4.9110003 657680
1.9877857 -1.6042601 4.9110003 985362
1.99714 -1.6042601 4.9110003 1051155
2.1281002 -1.6042601 4.9110003 591115
-1.3655238 -0.87036192 2.6800001 5726292
-1.7172991 -1.5289792 4.7080002 203088
-1.7083315 -1.5289792 4.7080002 6650802
-1.6324667 -1.6920094 5.21 6058644
-1.3051143 -1.7452705 5.3740001 9544390
-1.1841763 -1.7183152 5.2910004 7310265
-1.0763999 -1.7731999 5.46 5400244
-1.0287372 -1.7452705 5.3740001 5070207
-1.0185009 -1.7452705 5.3740001 5267576
-1.0244 -1.7731999 5.46 4412267
-1.0139999 -1.7731999 5.46 4411764
-0.92039996 -1.7731999 5.46 4541541
-0.80599999 -1.7731999 5.46 3158593
-0.77283239 -1.7452705 5.3740001 2238509
-0.76259619 -1.7452705 5.3740001 1185821
-0.75236005 -1.7452705 5.3740001 594188
-0.68161142 -1.8017792 5.5480003 2107925
-0.60763812 -1.8017792 5.5480003 5396832
-0.59707046 -1.8017792 5.5480003 2633526
-0.35078573 -1.5949059 4.9110003 723480
-0.33663428 -1.5724971 4.842 460308
-0.32281333 -1.5504134 4.7740002 460301
-0.30938289 -1.5289792 4.7080002 591887
-0.21073905 -1.5289792 4.7080002 7699376
-0.10457333 -1.5504134 4.7740002 5595262
-0.095480002 -1.5504134 4.7740002 8292775
0.052185714 -1.1863554 3.6530001 6384811
0.14957334 -0.71837336 2.2120001 1052690
0.68602288 -1.5289792 4.7080002 5924244
0.68569058 -1.5085192 4.6450005 10003410
0.69453818 -1.5085192 4.6450005 10595017
0.70338577 -1.5085192 4.6450005 10134466
0.72189337 -1.5289792 4.7080002 9808334
0.73086101 -1.5289792 4.7080002 9874127
0.73982859 -1.5289792 4.7080002 10070741
0.74879622 -1.5289792 4.7080002 10070741
0.75776386 -1.5289792 4.7080002 10333904
0.7667315 -1.5289792 4.7080002 10399697
0.93454671 -1.4685733 4.5220003 10728414
1.1068572 -1.1613486 3.5760002 133403
1.2839544 -1.1613486 3.5760002 5987935
1.7894505 -1.4494125 4.4630003 328715
1.9414266 -1.5504134 4.7740002 787990
2.0064943 -1.5949059 4.9110003 132367
2.1593001 -1.6182886 4.9830003 328706
-1.3655238 -0.86525714 2.6800001 4738629
-1.7172991 -1.5200115 4.7080002 993367
-1.6324667 -1.6820858 5.21 5862292
-1.1841763 -1.7082373 5.2910004 4352412
-1.1003906 -1.7350342 5.3740001 6849457
-1.0128486 -1.7082373 5.2910004 3233659
-0.85800004 -1.7628001 5.46 2301472
-0.83719999 -1.7628001 5.46 3090504
-0.82679999 -1.7628001 5.46 2960433
-0.80354095 -1.7350342 5.3740001 2960433
-0.7933048 -1.7350342 5.3740001 2960433
-0.68161142 -1.7912115 5.5480003 2567474
-0.62920004 -1.7628001 5.46 4279886
-0.62877333 -1.7912115 5.5480003 4804688
-0.60839999 -1.7628001 5.46 5199446
-0.59799999 -1.7628001 5.46 5527132
-0.44135147 -1.6087972 4.9830003 1776161
-0.43186003 -1.6087972 4.9830003 1578782
-0.43499812 -1.656903 5.1320004 2039333
-0.4252229 -1.656903 5.1320004 1972784
-0.40929523 -1.6323658 5.0560002 2104370
-0.39966476 -1.6323658 5.0560002 1843249
-0.39003429 -1.6323658 5.0560002 1316905
-0.36014003 -1.5855515 4.9110003 920348
-0.31371999 -1.5413201 4.7740002 461584
-0.30462667 -1.5413201 4.7740002 461584
-0.29553333 -1.5413201 4.7740002 461584
-0.26100478 -1.4996716 4.6450005 197897
-0.25215715 -1.4996716 4.6450005 1184792
-0.19907145 -1.4996716 4.6450005 3818877
-0.12276001 -1.5413201 4.7740002 770
-0.10457333 -1.5413201 4.7740002 5398402
-0.095480002 -1.5413201 4.7740002 8359087
0.051628575 -1.1668057 3.6140001 6516881
0.14444001 -0.70964009 2.1980002 3158593
0.77748001 -1.5413201 4.7740002 8360114
0.78657335 -1.5413201 4.7740002 8229811
0.79566669 -1.5413201 4.7740002 8295604
0.80476004 -1.5413201 4.7740002 8295604
0.81385332 -1.5413201 4.7740002 8295604
0.82294673 -1.5413201 4.7740002 8295347
0.83204001 -1.5413201 4.7740002 8361140
0.84113336 -1.5413201 4.7740002 8360888
0.8502267 -1.5413201 4.7740002 8360888
0.91385239 -1.4409115 4.4630003 8888261
1.1186191 -1.1668057 3.6140001 3617630
1.277143 -1.1545372 3.5760002 6186100
1.7894505 -1.4409115 4.4630003 525574
2.1593001 -1.6087972 4.9830003 328706
2.2336421 -1.656903 5.1320004 459529
-1.3548238 -0.85341245 2.6590002 4672586
-1.7172991 -1.5110439 4.7080002 1850984
-1.6423905 -1.6721619 5.21 3822709
-1.6324667 -1.6721619 5.21 5862292
-1.6019638 -1.7247981 5.3740001 9413837
-1.2849572 -1.6981592 5.2910004 9214410
-1.1841763 -1.6981592 5.2910004 7967159
-1.1740981 -1.6981592 5.2910004 7967159
-1.1640201 -1.6981592 5.2910004 8362675
-1.0833952 -1.6981592 5.2910004 7045562
-0.8444857 -1.7247981 5.3740001 65804
-0.82401329 -1.7247981 5.3740001 28
-0.69217908 -1.7806439 5.5480003 31
-0.68161142 -1.7806439 5.5480003 30
-0.59799999 -1.7524 5.46 513
-0.4536829 -1.5761971 4.9110003 4
-0.45744762 -1.6227353 5.0560002 9
-0.39589718 -1.6471277 5.1320004 4
-0.38040382 -1.6227353 5.0560002 2
-0.29553333 -1.5322267 4.7740002 2
-0.28644001 -1.5322267 4.7740002 4
-0.27351239 -1.5110439 4.7080002 4
-0.19907145 -1.4908239 4.6450005 3162235
-0.19022383 -1.4908239 4.6450005 201786
-0.12276001 -1.5322267 4.7740002 277
-0.10457333 -1.5322267 4.7740002 4545923
0.13520001 -0.70095998 2.184 6710375
0.8502267 -1.5322267 4.7740002 1391716
0.85931998 -1.5322267 4.7740002 998252
0.86841339 -1.5322267 4.7740002 142943
0.87750667 -1.5322267 4.7740002 338006
0.91385239 -1.4324106 4.4630003 276592
1.1186191 -1.1599219 3.6140001 9999549
1.277143 -1.1477257 3.5760002 6579822
1.8371639 -1.4706038 4.5820003 2434341
2.1909335 -1.6227353 5.0560002 1382414
-1.3548238 -0.84834766 2.6590002 5328972
-1.360419 -0.85504764 2.6800001 5526351
-1.7262667 -1.5020763 4.7080002 1974308
-1.6523143 -1.662238 5.21 4543601
-1.6423905 -1.662238 5.21 3954034
-1.6019638 -1.7145619 5.3740001 9217485
-1.2849572 -1.688081 5.2910004 10002894
-1.0833952 -1.688081 5.2910004 9871056
-0.8444857 -1.7145619 5.3740001 198706
-0.82401329 -1.7145619 5.3740001 132407
-0.68027145 -1.688081 5.2910004 513
-0.67019337 -1.688081 5.2910004 132099
-0.68120003 -1.742 5.46 74
-0.68161142 -1.7700763 5.5480003 73
-0.67104387 -1.7700763 5.5480003 65
-0.66047627 -1.7700763 5.5480003 65
-0.62877333 -1.7700763 5.5480003 54
-0.61820573 -1.7700763 5.5480003 55
-0.50045431 -1.5668429 4.9110003 45
-0.49110001 -1.5668429 4.9110003 45
-0.47497714 -1.5448285 4.842 45
-0.46575427 -1.5448285 4.842 44
-0.46303716 -1.5668429 4.9110003 31
-0.19022383 -1.4819764 4.6450005 294
-0.1813762 -1.4819764 4.6450005 294
-0.17018858 -1.4618763 4.5820003 38
-0.15726763 -1.4239097 4.4630003 37
-0.14683333 -1.4054048 4.4050002 22
-0.13844286 -1.4054048 4.4050002 65559
-0.12655048 -1.4618763 4.5820003 51
-0.12450857 -1.5448285 4.842 305
-0.11528572 -1.5448285 4.842 855614
-0.10606285 -1.5448285 4.842 3428711
0.058512378 -1.1530381 3.6140001 3102757
0.06539619 -1.1530381 3.6140001 7576681
0.87750667 -1.5231334 4.7740002 204103
0.87434292 -1.5020763 4.7080002 269896
0.87149054 -1.4819764 4.6450005 400695
0.88033819 -1.4819764 4.6450005 3558759
0.87712574 -1.4618763 4.5820003 5066865
0.88585335 -1.4618763 4.5820003 5659002
0.88286674 -1.4427334 4.5220003 6122108
0.89148009 -1.4427334 4.5220003 6714245
0.90009338 -1.4427334 4.5220003 7239588
0.90870672 -1.4427334 4.5220003 4739454
0.90535152 -1.4239097 4.4630003 2241367
1.1186191 -1.1530381 3.6140001 11186384
1.277143 -1.1409143 3.5760002 6776681
1.2839544 -1.1409143 3.5760002 5396332
1.8876839 -1.5020763 4.7080002 2172716
2.181303 -1.6131048 5.0560002 1120028
-1.360419 -0.84994286 2.6800001 6646115
-1.7172991 -1.4931086 4.7080002 3822720
-1.7083315 -1.4931086 4.7080002 6651819
-1.6766239 -1.4731287 4.6450005 6978981
-1.6523143 -1.6523143 5.21 4477808
-1.6019638 -1.7043257 5.3740001 9282249
-1.3358228 -1.7043257 5.3740001 10267560
-1.2950354 -1.678003 5.2910004 10529236
-0.73932379 -1.6523143 5.21 7829646
-0.72939998 -1.6523143 5.21 7106952
-0.71240002 -1.7316 5.46 9609401
-0.68120003 -1.7316 5.46 11712477
-0.64999807 -1.7043257 5.3740001 11186653
-0.66047627 -1.7595087 5.5480003 11055067
-0.6499086 -1.7595087 5.5480003 10988758
-0.639341 -1.7595087 5.5480003 10725586
-0.5172829 -1.580323 4.9830003 10066884
-0.15726763 -1.4154086 4.4630003 1254490
-0.14316666 -1.3621285 4.2950001 1517935
-0.13328858 -1.3450029 4.2410002 3623311
0.06539619 -1.1461543 3.6140001 7648383
0.13272001 -0.70152009 2.2120001 7694743
1.1186191 -1.1461543 3.6140001 10987447
1.2907143 -1.1461543 3.6140001 5988969
1.8787162 -1.4931086 4.7080002 1251901
1.8876839 -1.4931086 4.7080002 1843251
2.0833685 -1.580323 4.9830003 3488083
2.1213343 -1.580323 4.9830003 857630
2.1620419 -1.6034744 5.0560002 855103
2.1716723 -1.6034744 5.0560002 986689
1.1687001 -0.83694005 2.6390002 2567458
1.1876867 -0.84328294 2.6590002 8355168
1.3144867 -0.85660291 2.7010002 262188
-1.3822466 -0.85839331 2.723 6188135
-1.6993638 -1.484141 4.7080002 6782115
-1.678003 -1.6679249 5.2910004 4543601
-1.6679249 -1.6679249 5.2910004 3887727
-1.6019638 -1.6940895 5.3740001 9019595
-1.5200742 -1.6940895 5.3740001 9084357
-1.3151915 -1.6679249 5.2910004 7965339
-1.118 -1.7212 5.46 10400471
-0.73803055 -1.617802 5.1320004 9279652
-0.71240002 -1.7212 5.46 13485292
-0.68027145 -1.6679249 5.2910004 13357287
-0.67019337 -1.6679249 5.2910004 15002111
-0.64999807 -1.6940895 5.3740001 14411263
-0.094000004 -1.2445601 3.9480002 8095467
0.06539619 -1.1392704 3.6140001 7253599
0.096042864 -0.70644861 2.2410002 1643292
1.2907267 -1.1515648 3.6530001 3752323
1.8787162 -1.484141 4.7080002 2764880
2.1138895 -1.5938439 5.0560002 3291217
2.142781 -1.5938439 5.0560002 3160133
1.3144867 -0.85145813 2.7010002 196633
-1.3710791 -0.84631342 2.7010002 6186852
-1.3659344 -0.84631342 2.7010002 6252884
-1.3718734 -0.85320663 2.723 6910814
-1.6993638 -1.4751734 4.7080002 6781856
-1.6940895 -1.6838534 5.3740001 3887727
-1.3252696 -1.6578468 5.2910004 7898519
-1.1413352 -1.6838534 5.3740001 1317
-1.118 -1.7107999 5.46 1828
-1.0330048 -1.6578468 5.2910004 464724
-1.0229268 -1.6578468 5.2910004 269653
-1.0128486 -1.6578468 5.2910004 467032
-0.7771315 -1.6080267 5.1320004 4612225
-0.76735622 -1.6080267 5.1320004 3822709
-0.74780577 -1.6080267 5.1320004 5006490
-0.69159997 -1.7107999 5.46 16383999
-0.66039997 -1.7107999 5.46 16121597
-0.09509524 -1.2514534 3.9940002 9738647
-0.087487623 -1.2514534 3.9940002 8558276
0.06539619 -1.1323867 3.6140001 7380916
0.096042864 -0.70218003 2.2410002 12237514
0.13780001 -0.69748002 2.2260001 7366238
0.14204 -0.69748002 2.2260001 2694935
1.1255029 -1.1323867 3.6140001 6910089
1.3045067 -1.1568267 3.6920002 5594967
1.8787162 -1.4751734 4.7080002 4214886
2.1138895 -1.5842134 5.0560002 3357010
2.1235201 -1.5842134 5.0560002 3094610
2.1331506 -1.5842134 5.0560002 3160403
-1.3607897 -0.84116858 2.7010002 6713435
-1.3556448 -0.84116858 2.7010002 6121057
-1.73228 -1.48676 4.7740002 6846886
-1.7231867 -1.48676 4.7740002 6716063
-1.6940895 -1.6736171 5.3740001 3953268
-1.3252696 -1.6477686 5.2910004 7963801
-1.1908 -1.7004 5.46 21
-1.0632391 -1.6477686 5.2910004 38
-1.0492096 -1.6736171 5.3740001 38
-1.0128486 -1.6477686 5.2910004 38
-1.0027705 -1.6477686 5.2910004 31
-0.99269241 -1.6477686 5.2910004 31
-0.9826144 -1.6477686 5.2910004 38
-0.76562291 -1.5745829 5.0560002 68132
-0.757581 -1.5982516 5.1320004 272706
-0.69159997 -1.7004 5.46 16056319
-0.66039997 -1.7004 5.46 15793148
-0.14239715 -1.2584829 4.0410004 16449533
-0.09509524 -1.2438458 3.9940002 10002337
-0.087487623 -1.2438458 3.9940002 8951233
-0.073840007 -1.1497943 3.6920002 10332886
0.06539619 -1.1255029 3.6140001 7840621
0.14204 -0.69324005 2.2260001 2171189
0.86609435 -1.2155057 3.9030001 5004171
0.8735286 -1.2155057 3.9030001 5398929
0.91813427 -1.2155057 3.9030001 5397630
1.1255029 -1.1255029 3.6140001 6713975
1.3045067 -1.1497943 3.6920002 6517426
1.9321885 -1.5079371 4.842 3820128
2.1235201 -1.5745829 5.0560002 3290963
-1.3556448 -0.83602387 2.7010002 6186843
-1.7083315 -1.4572382 4.7080002 6781336
-1.6940895 -1.663381 5.3740001 3625078
-1.3252696 -1.6376905 5.2910004 7962777
-1.254723 -1.6376905 5.2910004 3225390
-1.2244887 -1.6376905 5.2910004 2567684
-1.2144105 -1.6376905 5.2910004 133376
-1.2043325 -1.6376905 5.2910004 555
-1.2129886 -1.663381 5.3740001 41
-1.2027524 -1.663381 5.3740001 772
-1.1925161 -1.663381 5.3740001 263944
-1.1822801 -1.663381 5.3740001 329261
-1.1515714 -1.663381 5.3740001 724250
-1.0492096 -1.663381 5.3740001 263216
-0.95238006 -1.6376905 5.2910004 131604
-0.94230193 -1.6376905 5.2910004 66315
-0.79668194 -1.5884763 5.1320004 50
-0.77525336 -1.5649525 5.0560002 4737147
-0.69159997 -1.6899999 5.46 16580606
-0.68120003 -1.6899999 5.46 16646142
-0.68161142 -1.7172382 5.5480003 16646142
-0.14408858 -1.2656429 4.0890002 16514813
-0.10270286 -1.2362381 3.9940002 15857662
-0.074639998 -1.1551429 3.7320001 11320821
-0.066101909 -1.1306906 3.6530001 11845610
0.06539619 -1.1186191 3.6140001 6849964
0.14204 -0.68900001 2.2260001 2105367
0.91813427 -1.2080715 3.9030001 12831970
1.1196001 -1.1551429 3.7320001 5728776
1.1267086 -1.1551429 3.7320001 5332856
1.1216648 -1.1427619 3.6920002 1780034
1.1286972 -1.1427619 3.6920002 601120
1.1427619 -1.1427619 3.6920002 2768455
1.1376486 -1.1306906 3.6530001 5005417
1.2218761 -1.1186191 3.6140001 12045046
1.3045067 -1.1427619 3.6920002 8291261
1.9321885 -1.4987143 4.842 4146013
2.1331506 -1.5649525 5.0560002 3618640
-1.3556448 -0.83087915 2.7010002 6318429
-1.3505001 -0.83087915 2.7010002 1383954
-1.3453554 -0.83087915 2.7010002 1815
-1.7083315 -1.4482706 4.7080002 6649505
-1.6940895 -1.6531447 5.3740001 3100008
-1.6838534 -1.6531447 5.3740001 4810626
-1.6736171 -1.6531447 5.3740001 5532046
-1.3252696 -1.6276125 5.2910004 7765911
-1.254723 -1.6276125 5.2910004 5066088
-1.2446448 -1.6276125 5.2910004 5131620
-1.2539333 -1.6531447 5.3740001 4934241
-1.243697 -1.6531447 5.3740001 3356247
-0.94230193 -1.6276125 5.2910004 1380899
-0.93222386 -1.6276125 5.2910004 1249313
-0.92214572 -1.6276125 5.2910004 1250067
-0.91206771 -1.6276125 5.2910004 1184274
-0.91613901 -1.6531447 5.3740001 855059
-0.12700287 -1.2430887 4.0410004 16252670
-0.11930572 -1.2430887 4.0410004 16449533
-0.11031048 -1.2286304 3.9940002 16449533
-0.066101909 -1.1237324 3.6530001 11583980
0.06539619 -1.1117352 3.6140001 8038000
0.14025334 -0.67614669 2.1980002 4079936
0.6352362 -1.2286304 3.9940002 16711422
0.64284384 -1.2286304 3.9940002 16711422
0.91813427 -1.2006372 3.9030001 13491449
0.93624008 -1.21448 3.9480002 13425143
0.94376004 -1.21448 3.9480002 13490936
1.1124915 -1.1480343 3.7320001 5726301
1.1076001 -1.1357296 3.6920002 6450024
1.2425276 -1.1117352 3.6140001 12767486
1.9229658 -1.4894913 4.842 4604506
1.9321885 -1.4894913 4.842 4538713
2.1331506 -1.5553221 5.0560002 3881033
-1.3505001 -0.82573432 2.7010002 1383954
-1.7569543 -1.4802686 4.842 6518171
-1.6736171 -1.6429086 5.3740001 5532039
-1.3151915 -1.6175344 5.2910004 4542056
-1.3051134 -1.6175344 5.2910004 730179
-1.2950354 -1.6175344 5.2910004 1316
-1.2849572 -1.6175344 5.2910004 515
-1.2948781 -1.6429086 5.3740001 2369320
-1.2846419 -1.6429086 5.3740001 3226196
-1.2744057 -1.6429086 5.3740001 6252674
-1.1076 -1.6692001 5.46 2500161
-1.0972 -1.6692001 5.46 2172995
-1.0868 -1.6692001 5.46 2172995
-1.0763999 -1.6692001 5.46 2238788
-0.92039996 -1.6692001 5.46 258
-0.14585049 -1.2653515 4.1390004 10534655
-0.1363 -1.2500658 4.0890002 10666495
-0.066101909 -1.1167743 3.6530001 11713498
-0.059143811 -1.1167743 3.6530001 12305635
-0.052185714 -1.1167743 3.6530001 11844825
0.058512378 -1.1048514 3.6140001 6779801
0.096685715 -0.68969142 2.256 6058154
0.10098286 -0.68969142 2.256 6189740
0.14673334 -0.66339999 2.1700001 45
0.15086667 -0.66339999 2.1700001 786443
0.16015999 -0.66768003 2.184 3415317
0.63501436 -1.2353915 4.0410004 16579836
0.6352362 -1.221023 3.9940002 16579836
0.93300289 -1.1932029 3.9030001 13162235
1.1124915 -1.1409258 3.7320001 11121615
1.181783 -1.0932344 3.5760002 8361140
1.1885943 -1.0932344 3.5760002 5734537
1.1954057 -1.0932344 3.5760002 9024187
1.2294629 -1.0932344 3.5760002 9677532
1.2362744 -1.0932344 3.5760002 10861806
1.2430859 -1.0932344 3.5760002 11977468
1.2631791 -1.1048514 3.6140001 11451124
1.2974743 -1.1286972 3.6920002 10925515
1.3045067 -1.1286972 3.6920002 7043728
1.9503686 -1.5013629 4.9110003 5130332
1.9597229 -1.5013629 4.9110003 4998746
2.1554401 -1.5689259 5.1320004 3422267
-1.3556448 -0.8205896 2.7010002 6055005
-1.3505001 -0.8205896 2.7010002 1252116
-1.274763 -0.78352481 2.5790002 396055
-1.25114 -0.77198005 2.5410001 132883
-1.7413733 -1.4503866 4.7740002 6847136
-1.73228 -1.4503866 4.7740002 6518171
-1.6736171 -1.6326724 5.3740001 5531516
-1.2948781 -1.6326724 5.3740001 2237986
-0.92637527 -1.6326724 5.3740001 768
-0.91613901 -1.6326724 5.3740001 256
-0.052185714 -1.1098162 3.6530001 12435698
-0.045227621 -1.1098162 3.6530001 9935564
-0.038269527 -1.1098162 3.6530001 9344712
-0.030977143 -1.0979676 3.6140001 9542091
-0.024093334 -1.0979676 3.6140001 10001618
0.031645715 -1.1216648 3.6920002 11122126
0.051628575 -1.0979676 3.6140001 7900074
0.16015999 -0.66351998 2.184 2953001
0.16537334 -0.66777337 2.1980002 2163485
0.62002099 -1.2134153 3.9940002 16579836
0.62762856 -1.2134153 3.9940002 16579836
0.93300289 -1.1857686 3.9030001 13162233
1.0889419 -1.1098162 3.6530001 10991313
1.1613486 -1.0864229 3.5760002 10201538
1.2129934 -1.0429782 3.4330001 7045278
1.1953763 -1.0223191 3.3650002 6253718
1.9597229 -1.4920087 4.9110003 5196114
1.9690771 -1.4920087 4.9110003 4999505
2.0946286 -1.5360609 5.0560002 3750982
2.1042593 -1.5360609 5.0560002 3224386
2.1782761 -1.5828476 5.21 3224386
-1.3139867 -0.79038668 2.618 6186339
-1.7413733 -1.4412934 4.7740002 6978976
-1.6838534 -1.6224362 5.3740001 3490405
-1.6477686 -1.5973781 5.2910004 3296626
-1.2948781 -1.6224362 5.3740001 2369320
-0.95708376 -1.6224362 5.3740001 45
-0.94684762 -1.6224362 5.3740001 41
-0.93661141 -1.6224362 5.3740001 54
-0.024353335 -1.1028581 3.6530001 8689894
-0.017395239 -1.1028581 3.6530001 8689894
0.044274289 -1.0796114 3.5760002 5267029
0.16537334 -0.66358674 2.1980002 1378101
0.62002099 -1.2058077 3.9940002 16579836
0.62762856 -1.2058077 3.9940002 16579836
0.91813427 -1.1783342 3.9030001 13953791
0.93624008 -1.19192 3.9480002 16646142
1.0889419 -1.1028581 3.6530001 10727364
1.1953763 -1.0159096 3.3650002 9938366
1.9690771 -1.4826543 4.9110003 4539213
1.9784315 -1.4826543 4.9110003 4605006
2.1261144 -1.5493753 5.1320004 307
2.1358895 -1.5493753 5.1320004 131891
1.2991619 -0.80910474 2.6800001 54
-1.3139867 -0.78539997 2.618 6121059
-1.7413733 -1.4322001 4.7740002 6782367
-1.6838534 -1.6122 5.3740001 3162721
-1.6225429 -1.563 5.21 3296864
-1.2948781 -1.6122 5.3740001 2237473
-0.96732002 -1.6122 5.3740001 2304
-0.017395239 -1.0959001 3.6530001 6524413
-0.010437143 -1.0959001 3.6530001 6589183
0.017395239 -1.0959001 3.6530001 8558038
0.024353335 -1.0959001 3.6530001 7307971
0.03131143 -1.0959001 3.6530001 6844021
0.03746286 -1.0728 3.5760002 5725540
0.16431999 -0.6552 2.184 790561
0.16848001 -0.6552 2.184 1118273
0.62762856 -1.1982001 3.9940002 16579836
0.6352362 -1.1982001 3.9940002 16579836
0.64284384 -1.1982001 3.9940002 16579836
0.65045148 -1.1982001 3.9940002 16579836
0.65805906 -1.1982001 3.9940002 16579836
0.67350006 -1.2123002 4.0410004 16645629
0.89308292 -1.1577001 3.8590002 10271928
0.90043342 -1.1577001 3.8590002 11125739
1.0889419 -1.0959001 3.6530001 10398142
1.0959001 -1.0959001 3.6530001 10003384
1.0910839 -1.0842 3.6140001 10134711
1.1889666 -1.0095 3.3650002 11254490
1.1953763 -1.0095 3.3650002 11450077
1.9506342 -1.4526 4.842 4738150
1.9598572 -1.4526 4.842 4935277
1.96908 -1.4526 4.842 4145761
1.9783028 -1.4526 4.842 3226196
1.9875258 -1.4526 4.842 2502473
2.1485047 -1.563 5.21 1253443
2.1584287 -1.563 5.21 858685
1.2940571 -0.80400002 2.6800001 723991
-1.4623028 -0.77445143 2.598 3291971
-1.4685733 -0.78041333 2.618 2897213
-1.3396295 -0.79263526 2.6590002 7107166
-1.3345648 -0.79263526 2.6590002 6252386
-1.7504667 -1.4231068 4.7740002 6454449
-1.2948781 -1.6019638 5.3740001 2105635
-1.0082648 -1.6019638 5.3740001 65596
-0.99802864 -1.6019638 5.3740001 57
-0.98779237 -1.6019638 5.3740001 57
-0.97755617 -1.6019638 5.3740001 2829920
-0.010437143 -1.0889419 3.6530001 5078527
-0.0034790477 -1.0889419 3.6530001 5407487
0.0034790477 -1.0889419 3.6530001 6980863
0.010437143 -1.0889419 3.6530001 6783487
0.16848001 -0.65103996 2.184 4603745
0.68150002 -1.2189114 4.0890002 16645629
0.66552001 -1.1768801 3.9480002 16579836
0.89308292 -1.1503496 3.8590002 11191726
1.0549591 -1.0549591 3.5390003 10529719
1.0617 -1.0549591 3.5390003 9805996
1.1955334 -0.94734669 3.1780002 2697
1.2940571 -0.79889524 2.6800001 263703
-1.4672514 -0.76950288 2.598 3028547
-1.380838 -0.79379052 2.6800001 6054753
-1.3649534 -0.78757048 2.6590002 6120546
-1.3598886 -0.78757048 2.6590002 6449511
-1.3446944 -0.78757048 2.6590002 7238002
-1.3396295 -0.78757048 2.6590002 7830139
-1.7172991 -1.3944649 4.7080002 6519185
-1.4195999 -1.6172 5.46 7372190
-1.2948781 -1.5917276 5.3740001 1974301
-1.1003906 -1.5917276 5.3740001 3422813
-1.0901543 -1.5917276 5.3740001 3225434
-1.0799181 -1.5917276 5.3740001 2962770
-1.0868 -1.6172 5.46 2041668
-1.0594456 -1.5917276 5.3740001 331569
-1.0492096 -1.5917276 5.3740001 134190
-1.0389733 -1.5917276 5.3740001 853581
-1.0287372 -1.5917276 5.3740001 3090543
-1.0185009 -1.5917276 5.3740001 4995978
0.1674 -0.64273334 2.1700001 5524579
0.17153333 -0.64273334 2.1700001 3616582
0.66552001 -1.16936 3.9480002 16646142
0.67304003 -1.16936 3.9480002 16646142
0.88313144 -1.130263 3.8160002 12111302
1.0617 -1.0482181 3.5390003 10529210
1.1955334 -0.94129342 3.1780002 7546
1.2015868 -0.94129342 3.1780002 334747
1.2076401 -0.94129342 3.1780002 4808671
1.2026181 -0.93270385 3.1490002 6848687
1.2086163 -0.93270385 3.1490002 8888270
1.2574134 -0.91582102 3.0920002 9084352
-1.4614334 -0.75896293 2.5790002 7108744
-1.3682799 -0.76455432 2.598 8752016
-1.3435363 -0.75896293 2.5790002 8555407
-1.338624 -0.75896293 2.5790002 8621200
-1.380838 -0.78868568 2.6800001 8621204
-1.3546867 -0.77662003 2.6390002 8752790
-1.3088971 -0.76455432 2.598 10134191
-1.2944125 -0.75896293 2.5790002 8620702
-1.7262667 -1.3854972 4.7080002 6649509
-1.71904 -1.4879086 5.0560002 2441063
-1.1106266 -1.5814915 5.3740001 3422559
0.095400006 -0.65508002 2.2260001 14472125
0.099639997 -0.65508002 2.2260001 12366749
0.17042668 -0.63448006 2.1560001 1312530
0.17453334 -0.63448006 2.1560001 1515324
0.66536862 -1.1485971 3.9030001 15988730
0.77547526 -1.1356486 3.8590002 13095154
0.79175144 -1.1485971 3.9030001 12240106
0.79918575 -1.1485971 3.9030001 11450590
0.80662006 -1.1485971 3.9030001 11581628
0.81405431 -1.1485971 3.9030001 10857905
0.83096004 -1.16184 3.9480002 10922921
0.81957817 -1.1356486 3.8590002 10462370
0.86369145 -1.0982742 3.7320001 13096416
1.0617 -1.0414772 3.5390003 10858173
1.1455125 -0.90993154 3.0920002 4156637
1.1514019 -0.90993154 3.0920002 6130427
1.1867391 -0.90993154 3.0920002 8822988
1.1926287 -0.90993154 3.0920002 8954583
1.2198229 -0.87049717 2.9580002 11582692
1.2254572 -0.87049717 2.9580002 11582692
1.2393 -0.83429998 2.835 9410743
-1.417222 -0.75405049 2.5790002 8227225
-1.4019048 -0.74849528 2.5600002 8423834
-1.3970287 -0.74849528 2.5600002 8489627
-1.4024849 -0.75405049 2.5790002 8424352
-1.3975725 -0.75405049 2.5790002 8490145
-1.39266 -0.75405049 2.5790002 8621729
-1.3979714 -0.75960571 2.598 8687522
-1.3930229 -0.75960571 2.598 8753315
-1.3779229 -0.75405049 2.5790002 8819108
-1.3628954 -0.74849528 2.5600002 8688549
-1.3580191 -0.74849528 2.5600002 8622756
-1.3531429 -0.74849528 2.5600002 8688033
-1.3482667 -0.74849528 2.5600002 8819619
-1.7352344 -1.3765296 4.7080002 6123161
-1.6531447 -1.5712552 5.3740001 7767207
-1.1413352 -1.5712552 5.3740001 3817050
-1.1492 -1.5963999 5.46 3619671
-1.1208628 -1.5712552 5.3740001 3357528
0.10098286 -0.65961146 2.256 11776635
0.10528 -0.65961146 2.256 11773736
0.11030572 -0.66399717 2.2710001 14866007
0.11387429 -0.65961146 2.256 14272928
0.11738572 -0.65522575 2.2410002 8812109
0.12084001 -0.65083998 2.2260001 7892832
0.17453334 -0.63037336 2.1560001 1318447
0.66536862 -1.1411629 3.9030001 14938102
0.70312005 -1.15432 3.9480002 14345970
0.71064007 -1.15432 3.9480002 13820405
0.71816003 -1.15432 3.9480002 13754612
0.72568005 -1.15432 3.9480002 13819385
0.72484285 -1.1411629 3.9030001 13556213
0.73227721 -1.1411629 3.9030001 13162979
0.74824005 -1.15432 3.9480002 13031393
0.75576001 -1.15432 3.9480002 13096164
0.75458002 -1.1411629 3.9030001 13161957
0.75342381 -1.128298 3.8590002 13227493
0.76077431 -1.128298 3.8590002 13161700
0.76812482 -1.128298 3.8590002 13161446
0.81957817 -1.128298 3.8590002 10396073
0.82692862 -1.128298 3.8590002 10461616
0.83427906 -1.128298 3.8590002 10395823
0.83225149 -1.1157258 3.8160002 10133932
0.83028007 -1.1034458 3.7740002 10133932
0.84740192 -1.0794705 3.6920002 8029317
1.0509001 -1.0242105 3.5030003 10266297
1.0575724 -1.0242105 3.5030003 10068918
1.0536115 -1.0139772 3.4680002 9871539
1.0602171 -1.0139772 3.4680002 9871535
1.0775896 -1.0242105 3.5030003 9805742
1.0954047 -1.0347363 3.5390003 10002594
1.1926287 -0.90404195 3.0920002 7512559
1.2141886 -0.86486292 2.9580002 11189474
1.2198229 -0.86486292 2.9580002 11255010
1.2273343 -0.84293431 2.8830001 11320549
1.2393 -0.82890004 2.835 10530772
1.234602 -0.8221752 2.812 10004430
-1.4271001 -0.72183335 2.4850001 9543356
-1.7352344 -1.3675619 4.7080002 6781072
-1.7172991 -1.3675619 4.7080002 6124435
-1.71904 -1.4686477 5.0560002 2770789
-1.6578468 -1.5369096 5.2910004 3425893
-1.6477686 -1.5369096 5.2910004 3624293
-1.1720438 -1.5610191 5.3740001 1912420
-1.1618077 -1.5610191 5.3740001 2633558
-1.1515714 -1.5610191 5.3740001 2633558
-1.1413352 -1.5610191 5.3740001 2106449
0.12084001 -0.64660001 2.2260001 2238037
0.17566667 -0.63033336 2.1700001 1515075
0.67304003 -1.1468 3.9480002 14477558
0.70312005 -1.1468 3.9480002 9544901
0.83028007 -1.0962572 3.7740002 9607593
0.8281486 -1.0840571 3.7320001 9146022
0.83149236 -1.0611095 3.6530001 8027277
1.0509001 -1.0175381 3.5030003 8556190
1.0954047 -1.0279953 3.5390003 8752797
1.0909344 -1.0175381 3.5030003 8752797
1.0976067 -1.0175381 3.5030003 8949917
1.1156276 -1.0279953 3.5390003 8949917
1.1109515 -1.0175381 3.5030003 8488862
1.1440001 -0.90628576 3.1200001 939733
1.224861 -0.866781 2.9840002 10860509
-1.7595601 -1.3776401 4.7740002 6846875
-1.3153505 -1.5507829 5.3740001 34
-1.2027524 -1.5507829 5.3740001 14275071
-1.2116001 -1.5756 5.46 5919365
-1.1822801 -1.5507829 5.3740001 1536
-1.1515714 -1.5507829 5.3740001 2370643
0.1798 -0.62620002 2.1700001 2301749
0.67304003 -1.13928 3.9480002 14477299
0.68055999 -1.13928 3.9480002 14280181
0.68808001 -1.13928 3.9480002 13095907
0.69560003 -1.13928 3.9480002 12634605
0.8281486 -1.0769485 3.7320001 9212337
0.83525717 -1.0769485 3.7320001 9146544
0.83149236 -1.0541514 3.6530001 9079459
1.1223686 -1.0212544 3.5390003 7831697
1.1291096 -1.0212544 3.5390003 7897490
1.1358505 -1.0212544 3.5390003 6977154
1.1196686 -1.0007658 3.4680002 7108740
1.1337334 -0.89226294 3.0920002 1333208
1.224861 -0.86109716 2.9840002 10795229
1.2024648 -0.81146288 2.812 10663895
-1.7352344 -1.3496267 4.7080002 6847119
-1.378 -1.5652 5.46 7174813
-1.2428 -1.5652 5.46 12496838
-1.2324001 -1.5652 5.46 16774143
0.1798 -0.62206668 2.1700001 2498349
0.83525717 -1.0698401 3.7320001 13357544
0.83333719 -1.0583733 3.6920002 13225701
0.84036958 -1.0583733 3.6920002 13028322
1.1196686 -0.99416006 3.4680002 9345452
1.1149076 -0.98412669 3.4330001 9279659
1.2191772 -0.85541338 2.9840002 10860761
1.224861 -0.85541338 2.9840002 10860761
1.2024648 -0.80610663 2.812 11057358
1.2383171 -0.82646 2.8830001 10925772
1.2334543 -0.81958008 2.8590002 11056833
-1.744202 -1.340659 4.7080002 6187122
-1.7352344 -1.340659 4.7080002 6584206
-1.6324667 -1.4836096 5.21 3425890
-1.6225429 -1.4836096 5.21 3689314
-1.3051143 -1.5303105 5.3740001 256
-1.2948781 -1.5303105 5.3740001 1382164
-1.2846419 -1.5303105 5.3740001 2439249
-1.2744057 -1.5303105 5.3740001 5399934
-1.2641696 -1.5303105 5.3740001 5791627
-1.2636 -1.5548 5.46 3556704
-1.2531999 -1.5548 5.46 9280695
0.11856 -0.62191999 2.184 8878464
0.12272 -0.62191999 2.184 5062470
0.1798 -0.61793333 2.1700001 2235177
0.83333719 -1.0513411 3.6920002 13029871
1.1149076 -0.97758764 3.4330001 10792648
1.11034 -0.9679057 3.3990002 10792648
1.1234666 -0.87251049 3.0640001 5143262
1.2240667 -0.85713339 3.0100002 10728925
1.2298 -0.85713339 3.0100002 10597339
1.2334543 -0.81413436 2.8590002 12108197
1.2389001 -0.81413436 2.8590002 12634541
1.2339 -0.80730003 2.835 13160619
1.2292457 -0.80075049 2.812 13752756
1.234602 -0.80075049 2.812 13620948
-1.744202 -1.3316914 4.7080002 5858675
-1.6697401 -1.3891114 4.9110003 2900316
-1.699779 -1.4301258 5.0560002 3424871
-1.6477686 -1.4965973 5.2910004 3228775
-1.3051143 -1.5200742 5.3740001 513
-1.2844 -1.5444 5.46 5463689
-1.2739999 -1.5444 5.46 3292520
0.12272 -0.61776 2.184 89
0.12688001 -0.61776 2.184 256
0.1798 -0.61380005 2.1700001 2562604
1.11034 -0.96143144 3.3990002 11714011
1.1168143 -0.96143144 3.3990002 11779551
1.1232885 -0.96143144 3.3990002 11911137
1.1297629 -0.96143144 3.3990002 11779551
1.1476029 -0.97104859 3.4330001 11647965
1.1541419 -0.97104859 3.4330001 11714779
1.1491858 -0.96143144 3.3990002 11648986
1.1556602 -0.96143144 3.3990002 11583445
1.1505096 -0.95181435 3.3650002 11649238
1.1569191 -0.95181435 3.3650002 11583704
1.1522658 -0.94276291 3.3330002 11123153
1.1586143 -0.94276291 3.3330002 11123414
1.1649629 -0.94276291 3.3330002 11255000
1.1278439 -0.87459439 3.0920002 477117
1.1234666 -0.8666743 3.0640001 4486092
1.2240667 -0.85140008 3.0100002 10794457
1.2447001 -0.80189997 2.835 16646072
1.2501 -0.80189997 2.835 12961920
1.2351285 -0.78888857 2.789 11316896
1.2110866 -0.77021998 2.723 10593173
-1.8301687 -0.99429059 3.5390003 7642571
-1.8234277 -0.99429059 3.5390003 6918848
-1.6096877 -1.3227239 4.7080002 4280427
-1.6697401 -1.3797573 4.9110003 3030360
-1.6847286 -1.3999858 4.9830003 3554396
-1.6578468 -1.4865191 5.2910004 3817302
-1.6477686 -1.4865191 5.2910004 2899289
-1.5873002 -1.4865191 5.2910004 7898793
-1.577222 -1.4865191 5.2910004 7898793
-1.5671439 -1.4865191 5.2910004 7833000
-1.5570657 -1.4865191 5.2910004 7767207
-1.5712552 -1.5098381 5.3740001 7833000
-1.3153505 -1.5098381 5.3740001 289
0.12932001 -0.62540001 2.2260001 50
0.13356 -0.62540001 2.2260001 131380
0.15153429 -0.62961429 2.2410002 7240118
0.15580288 -0.62961429 2.2410002 8092329
0.16007143 -0.62961429 2.2410002 3289440
0.16434 -0.62961429 2.2410002 770
0.16860859 -0.62961429 2.2410002 263942
0.16848001 -0.61360002 2.184 1378571
0.17264 -0.61360002 2.184 2365466
0.1768 -0.61360002 2.184 2626603
0.18096 -0.61360002 2.184 2758189
1.1649629 -0.9364143 3.3330002 11320801
1.1597143 -0.92714292 3.3000002 11582951
1.1278439 -0.8687048 3.0920002 3497394
1.2343543 -0.86083817 3.0640001 10662873
1.2401905 -0.86083817 3.0640001 10859228
1.2460266 -0.86083817 3.0640001 10990814
1.2110866 -0.76503336 2.723 10921359
1.2064466 -0.75885242 2.7010002 11381591
-1.8315686 -0.97750384 3.5030003 5141417
-1.8248963 -0.97750384 3.5030003 4879517
-1.818224 -0.97750384 3.5030003 4879517
-1.8301687 -0.9875496 3.5390003 4682390
-1.8234277 -0.9875496 3.5390003 4616597
-1.7531697 -1.3137562 4.7080002 333883
-1.7352344 -1.3137562 4.7080002 6451848
-1.6096877 -1.3137562 4.7080002 3624315
-1.6578468 -1.476441 5.2910004 5331048
-1.5507829 -1.499602 5.3740001 7504548
-1.3255867 -1.499602 5.3740001 3033704
0.13356 -0.62116003 2.2260001 8162237
0.13780001 -0.62116003 2.2260001 8093630
0.14204 -0.62116003 2.2260001 7435700
0.14726573 -0.62534577 2.2410002 4607928
0.15153429 -0.62534577 2.2410002 4015791
0.49919909 -0.55614191 1.9930001 13096699
1.1488199 -0.91220665 3.2690001 11846636
1.1219544 -0.86281526 3.0920002 10137322
1.1176306 -0.85500193 3.0640001 9610978
1.2343543 -0.85500193 3.0640001 10399960
1.2064466 -0.75370765 2.7010002 11513445
-1.8382411 -0.97083145 3.5030003 5664152
-1.8315686 -0.97083145 3.5030003 5795738
-1.8048792 -0.97083145 3.5030003 6452889
-1.7531697 -1.3047886 4.7080002 335169
-1.7352344 -1.3047886 4.7080002 5859982
-1.6324667 -1.4439143 5.21 5332329
-1.563 -1.4439143 5.21 7700886
-1.5298249 -1.4222972 5.1320004 7635093
-1.5200496 -1.4222972 5.1320004 7306896
-1.5332285 -1.4439143 5.21 7438482
-1.3358228 -1.4893657 5.3740001 5531530
0.23527142 -0.53072858 1.9150001 15069434
0.23891905 -0.53072858 1.9150001 14937848
0.24256667 -0.53072858 1.9150001 15397879
0.31008002 -0.52768004 1.904 14938100
0.49919909 -0.55234575 1.9930001 13359353
0.50954664 -0.52768004 1.904 14017016
1.1425934 -0.90597999 3.2690001 11583982
1.1550467 -0.90597999 3.2690001 11583980
1.1396039 -0.88907433 3.2080002 11189746
1.1350001 -0.88076001 3.1780002 10268644
1.130641 -0.87272292 3.1490002 10399978
1.1366391 -0.87272292 3.1490002 10663150
1.1219544 -0.85692579 3.0920002 10662898
1.1452878 -0.8269943 2.9840002 9876201
1.1509715 -0.8269943 2.9840002 10793694
1.1771991 -0.84168285 3.0370002 11056866
1.2226819 -0.84916574 3.0640001 10794718
1.2285181 -0.84916574 3.0640001 10926302
1.2343543 -0.84916574 3.0640001 10728923
1.2064466 -0.74856293 2.7010002 11579229
-1.4206657 -0.73185813 2.6590002 4944281
-1.415601 -0.73185813 2.6590002 5403530
-1.8449135 -0.96415907 3.5030003 6060439
-1.8382411 -0.96415907 3.5030003 6191249
-1.8048792 -0.96415907 3.5030003 6650522
-1.8166867 -0.97406769 3.5390003 6716313
-1.8099458 -0.97406769 3.5390003 6782106
-1.7531697 -1.295821 4.7080002 664654
-1.6324667 -1.4339905 5.21 6910062
-1.6588 -1.5028 5.46 10659495
-1.6484001 -1.5028 5.46 10791081
-1.5332285 -1.4339905 5.21 10527909
-1.5233047 -1.4339905 5.21 10658984
-1.3460591 -1.4791296 5.3740001 8752034
0.27174765 -0.52708095 1.9150001 16383227
0.30092856 -0.52708095 1.9150001 16383227
0.48241717 -0.53010857 1.9260001 13951221
0.51408577 -0.52130097 1.8940001 15200504
1.0296428 -0.79351145 2.8830001 9216470
1.0351343 -0.79351145 2.8830001 9085665
1.0406258 -0.79351145 2.8830001 9283044
1.1296743 -0.81415433 2.9580002 11651839
1.1353086 -0.81415433 2.9580002 11520255
1.1771991 -0.83589816 3.0370002 11256314
1.1829839 -0.83589816 3.0370002 11517939
1.1887686 -0.83589816 3.0370002 11583732
1.1945535 -0.83589816 3.0370002 11518189
1.2110096 -0.84332955 3.0640001 11649775
1.2168458 -0.84332955 3.0640001 11518182
1.2226819 -0.84332955 3.0640001 11583975
1.1970667 -0.73763812 2.6800001 11645015
-2.0189154 -0.9673267 3.5390003 8102341
-2.0121744 -0.9673267 3.5390003 7181239
-2.0054333 -0.9673267 3.5390003 5144745
-1.9986925 -0.9673267 3.5390003 4815780
-1.9919515 -0.9673267 3.5390003 3828376
-1.8706144 -0.9673267 3.5390003 6256270
-1.8638735 -0.9673267 3.5390003 6453649
-1.8099458 -0.9673267 3.5390003 6716821
-1.8032049 -0.9673267 3.5390003 6913684
-1.06856 -0.76861334 2.812 394258
-1.7531697 -1.2868533 4.7080002 1059662
-1.6186552 -1.2868533 4.7080002 6058390
-1.6578468 -1.4462067 5.2910004 6448234
-1.6477686 -1.4462067 5.2910004 7169386
-1.6376905 -1.4462067 5.2910004 9011590
-1.6276125 -1.4462067 5.2910004 9341843
-1.6175344 -1.4462067 5.2910004 9868187
-1.6588 -1.4924001 5.46 10263199
-1.5469878 -1.4462067 5.2910004 11315885
-1.5369096 -1.4462067 5.2910004 11315885
-1.5507829 -1.4688933 5.3740001 11512494
-1.365582 -1.4462067 5.2910004 10197413
-1.3767676 -1.4688933 5.3740001 10328999
-1.3665315 -1.4688933 5.3740001 10394794
-1.3562952 -1.4688933 5.3740001 10197415
0.42613333 -0.52042663 1.904 16055804
0.45777619 -0.52343339 1.9150001 15134707
1.0406258 -0.78802001 2.8830001 9086192
1.093962 -0.79485339 2.9080002 14215163
1.099501 -0.79485339 2.9080002 14609142
1.1050401 -0.79485339 2.9080002 14082798
1.110579 -0.79485339 2.9080002 13096953
1.191962 -0.73253334 2.6800001 11250085
1.1970667 -0.73253334 2.6800001 12103827
-1.9716887 -0.95081437 3.5030003 1828
-1.9650162 -0.95081437 3.5030003 1314
-1.958344 -0.95081437 3.5030003 1565
-1.9516715 -0.95081437 3.5030003 133151
-1.8716029 -0.95081437 3.5030003 6518406
-1.8649306 -0.95081437 3.5030003 6257292
-1.8773553 -0.96058577 3.5390003 6125706
-1.8706144 -0.96058577 3.5390003 6256021
-1.8032049 -0.96058577 3.5390003 6716821
-1.7531697 -1.2778857 4.7080002 993869
-1.6276228 -1.2778857 4.7080002 6189976
-1.5507829 -1.4586571 5.3740001 8684156
-1.5405467 -1.4586571 5.3740001 8355191
-1.482 -1.482 5.46 9671805
-1.448421 -1.4586571 5.3740001 10000516
-1.4381847 -1.4586571 5.3740001 10066309
-1.4279486 -1.4586571 5.3740001 10592146
-1.4177123 -1.4586571 5.3740001 10657939
-1.4074762 -1.4586571 5.3740001 10723226
-1.3756601 -1.4361286 5.2910004 10854812
-0.1513762 -0.5197857 1.9150001 16055291
0.45777619 -0.5197857 1.9150001 16449020
1.0461172 -0.78252858 2.8830001 15266813
1.0516087 -0.78252858 2.8830001 15266813
1.0571001 -0.78252858 2.8830001 15463933
1.0625914 -0.78252858 2.8830001 15595519
1.0680829 -0.78252858 2.8830001 15858430
1.0735743 -0.78252858 2.8830001 15990015
1.0790658 -0.78252858 2.8830001 16121597
1.0845572 -0.78252858 2.8830001 16121597
1.2064466 -0.73312861 2.7010002 9146535
1.2021714 -0.72742862 2.6800001 9607086
1.2072762 -0.72742862 2.6800001 10790302
1.2123809 -0.72742862 2.6800001 11777197
1.2328 -0.72742862 2.6800001 5987360
1.2379048 -0.72742862 2.6800001 199528
1.2527496 -0.73312861 2.7010002 1378
1.2578943 -0.73312861 2.7010002 65667
-1.984601 -0.92527521 3.4330001 5070216
-1.9584714 -0.91611147 3.3990002 4543872
-1.9519973 -0.91611147 3.3990002 4675976
-1.784862 -0.94414192 3.5030003 6651282
-1.7781897 -0.94414192 3.5030003 7243419
-1.7297097 -1.2519382 4.6450005 1059912
-1.6455581 -1.268918 4.7080002 6123665
-1.6365905 -1.268918 4.7080002 6189458
-1.5405467 -1.448421 5.3740001 4672332
-1.5339999 -1.4716001 5.46 5658450
-1.5738287 -1.5201144 5.6400003 6513759
-1.5630858 -1.5201144 5.6400003 6580070
-1.5270211 -1.4953182 5.5480003 6974828
-1.4924001 -1.4716001 5.46 7435379
-0.1513762 -0.51613808 1.9150001 16514813
1.0461172 -0.77703714 2.8830001 15728127
1.2123809 -0.72232378 2.6800001 11253942
1.2174857 -0.72232378 2.6800001 11777969
1.2225906 -0.72232378 2.6800001 11712176
1.2276953 -0.72232378 2.6800001 11121316
1.2328 -0.72232378 2.6800001 6450013
1.26814 -0.73391336 2.723 1985418
1.2889524 -0.72232378 2.6800001 10004446
1.2940571 -0.72232378 2.6800001 10004446
1.2889819 -0.7166639 2.6590002 10004707
1.2940466 -0.7166639 2.6590002 9938914
1.27908 -0.70561332 2.618 9676773
1.2840667 -0.70561332 2.618 10005738
1.3040334 -0.66976672 2.4850001 10400755
1.3087667 -0.66976672 2.4850001 10335214
1.3135 -0.66976672 2.4850001 10335214
1.3086847 -0.66491526 2.467 10334699
-1.9043192 -0.94710392 3.5390003 4085103
-1.8975782 -0.94710392 3.5390003 5531511
-1.7781897 -0.9374696 3.5030003 7243419
-1.7297097 -1.2430906 4.6450005 797493
-1.720862 -1.2430906 4.6450005 3363420
-1.7352344 -1.2599505 4.7080002 4741753
-1.6545258 -1.2599505 4.7080002 6057363
-1.6437467 -1.5345277 5.7340002 2
-1.5303105 -1.4381847 5.3740001 2
-1.5200742 -1.4381847 5.3740001 2
-0.1513762 -0.51249051 1.9150001 16055293
1.2886316 -0.74050194 2.7670002 16449533
1.2939019 -0.74050194 2.7670002 16449533
1.2785133 -0.72872669 2.723 16449533
1.2837 -0.72872669 2.723 16449533
1.2784734 -0.72283912 2.7010002 16449533
1.2836181 -0.72283912 2.7010002 16383740
1.2787429 -0.71721905 2.6800001 16055550
1.2838477 -0.71721905 2.6800001 16055550
