# .PCD v0.7 - Point Cloud Data file format
VERSION 0.7
FIELDS x y z rgba
SIZE 4 4 4 4
TYPE F F F U
COUNT 1 1 1 1
WIDTH 1194
HEIGHT 1
VIEWPOINT 0 0 0 1 0 0 0
POINTS 1194
DATA ascii
0.63285333 -0.51679999 1.904 16514813
0.63648003 -0.51679999 1.904 16514813
0.64010668 -0.51679999 1.904 16514813
0.64035237 -0.51408577 1.8940001 16514813
0.64396 -0.51408577 1.8940001 16449533
0.65098667 -0.51679999 1.904 16449533
0.65461332 -0.51679999 1.904 16252670
0.65824002 -0.51679999 1.904 16186877
0.67637336 -0.51679999 1.904 15661311
0.68000001 -0.51679999 1.904 15463933
0.68362671 -0.51679999 1.904 15266815
0.71611238 -0.51408577 1.8940001 16121597
0.71972001 -0.51408577 1.8940001 15990011
0.72332764 -0.51408577 1.8940001 15070204
0.73499531 -0.5197857 1.9150001 14346481
0.84320003 -0.51679999 1.904 6389426
0.84682667 -0.51679999 1.904 7376321
-1.2990267 -0.70561332 2.618 131845
-1.0773001 -0.76409996 2.835 263183
-1.5303105 -1.448421 5.3740001 5066061
-1.5200742 -1.448421 5.3740001 5329233
-0.13178097 -0.36924765 1.3700001 11380663
-0.12917143 -0.36924765 1.3700001 11314611
-0.11873335 -0.36924765 1.3700001 12433351
-0.11663239 -0.37086478 1.376 12433351
0.65824002 -0.51317334 1.904 16383740
0.66186666 -0.51317334 1.904 16252670
0.66549331 -0.51317334 1.904 16252670
0.67298573 -0.51613808 1.9150001 16252670
0.67274672 -0.51317334 1.904 16186877
0.67637336 -0.51317334 1.904 15990527
0.68362671 -0.51317334 1.904 15924734
0.68725336 -0.51317334 1.904 15924734
0.69450665 -0.51317334 1.904 15793919
0.69813335 -0.51317334 1.904 15859454
0.70175999 -0.51317334 1.904 15859454
0.70538664 -0.51317334 1.904 15924988
0.70901334 -0.51317334 1.904 15990781
0.70889717 -0.51047808 1.8940001 16121597
0.71250474 -0.51047808 1.8940001 16055804
0.71611238 -0.51047808 1.8940001 16055804
0.84237909 -0.51047808 1.8940001 7705264
0.85045332 -0.51317334 1.904 7902369
0.85407996 -0.51317334 1.904 8691885
0.85770673 -0.51317334 1.904 10135461
0.87946665 -0.51317334 1.904 5657462
0.88309336 -0.51317334 1.904 4210016
-1.2891028 -0.69527429 2.598 131845
-1.0864201 -0.76512289 2.8590002 197390
-0.1381 -0.36958191 1.381 11775146
-0.13546953 -0.36958191 1.381 11643560
-0.13178097 -0.36663812 1.3700001 11577767
-0.11663239 -0.36824381 1.376 10986638
-0.11401143 -0.36824381 1.376 10003087
0.68725336 -0.50954664 1.904 16121082
0.69088 -0.50954664 1.904 16121082
0.69450665 -0.50954664 1.904 16121082
0.85770673 -0.50954664 1.904 16580606
0.86133337 -0.50954664 1.904 16580606
0.86496001 -0.50954664 1.904 16646142
0.86858666 -0.50954664 1.904 16646142
0.87221336 -0.50954664 1.904 16580606
0.87584001 -0.50954664 1.904 16514813
0.87946665 -0.50954664 1.904 16449533
0.88309336 -0.50954664 1.904 16449533
0.91935998 -0.50954664 1.904 15529467
0.92298669 -0.50954664 1.904 15463935
0.92174667 -0.50687045 1.8940001 15463935
0.9253543 -0.50687045 1.8940001 15332606
0.96538001 -0.49054572 1.8330001 13425659
0.96887147 -0.49054572 1.8330001 13491452
-1.984601 -0.91219711 3.4330001 5070197
-1.2891028 -0.69032574 2.598 131845
-1.0773001 -0.75330001 2.835 197390
-0.2067 -0.36269999 1.365 12105131
-0.20410001 -0.36269999 1.365 12170924
-0.14073047 -0.36695144 1.381 12104363
-0.1381 -0.36695144 1.381 12104363
-0.11401143 -0.36562288 1.376 10265186
-0.11139048 -0.36562288 1.376 14212766
-0.15224573 -0.51176572 1.9260001 15528956
0.88309336 -0.50591999 1.904 16252670
0.88672 -0.50591999 1.904 16252670
0.89034665 -0.50591999 1.904 16252670
0.88927811 -0.50326288 1.8940001 16252670
0.89288574 -0.50326288 1.8940001 16252670
0.89649338 -0.50326288 1.8940001 16252670
0.90010095 -0.50326288 1.8940001 16252670
0.90847999 -0.50591999 1.904 16252670
0.91210669 -0.50591999 1.904 16252670
0.91573334 -0.50591999 1.904 16252670
0.91935998 -0.50591999 1.904 16252670
0.9253543 -0.50326288 1.8940001 16187390
0.92896193 -0.50326288 1.8940001 16187390
0.9325695 -0.50326288 1.8940001 16056061
0.93617713 -0.50326288 1.8940001 15990268
0.94474667 -0.50591999 1.904 15859454
0.94837338 -0.50591999 1.904 15793661
0.97573811 -0.50884289 1.9150001 15136765
0.97938579 -0.50884289 1.9150001 15070974
0.98303336 -0.50884289 1.9150001 15005181
0.98668098 -0.50884289 1.9150001 14742268
0.99032867 -0.50884289 1.9150001 14742268
0.98826671 -0.50591999 1.904 14676477
0.98668385 -0.50326288 1.8940001 14479098
0.99029148 -0.50326288 1.8940001 14347771
0.99389905 -0.50326288 1.8940001 14216185
0.96538001 -0.48705429 1.8330001 14084347
0.96887147 -0.48705429 1.8330001 14084347
1.0047219 -0.50326288 1.8940001 14018554
0.99714959 -0.49768287 1.8730001 14018554
1.0007172 -0.49768287 1.8730001 13887227
1.0268048 -0.50884289 1.9150001 13689848
1.0413953 -0.50884289 1.9150001 13294581
1.0390401 -0.50591999 1.904 13360374
1.0426667 -0.50591999 1.904 13360374
-1.984601 -0.90565813 3.4330001 1327
-1.2891028 -0.68537712 2.598 132097
-0.2119 -0.3601 1.365 12104617
-0.2093 -0.3601 1.365 12170410
-0.20579143 -0.35851717 1.3590001 12236203
-0.20320286 -0.35851717 1.3590001 12367789
-0.2006143 -0.35851717 1.3590001 12236199
-0.19802573 -0.35851717 1.3590001 12301992
-0.19543715 -0.35851717 1.3590001 12235949
-0.19284858 -0.35851717 1.3590001 12301742
-0.1911 -0.3601 1.365 12433076
-0.1885 -0.3601 1.365 12696248
-0.13960953 -0.36141905 1.3700001 12499373
-0.11401143 -0.36300191 1.376 11053208
0.94837338 -0.50229335 1.904 15924475
0.95200002 -0.50229335 1.904 15924475
0.95562667 -0.50229335 1.904 15990268
0.96479523 -0.50519526 1.9150001 15990268
0.96844292 -0.50519526 1.9150001 15990268
0.97209054 -0.50519526 1.9150001 15990268
0.97573811 -0.50519526 1.9150001 15990268
1.0268048 -0.50519526 1.9150001 16187390
1.0304525 -0.50519526 1.9150001 16187390
1.0341001 -0.50519526 1.9150001 16187390
1.0377476 -0.50519526 1.9150001 16187390
1.0413953 -0.50519526 1.9150001 16187390
1.0426667 -0.50229335 1.904 16252670
1.0462934 -0.50229335 1.904 16187390
-2.0048344 -0.9082858 3.4680002 265
-1.9584714 -0.89021432 3.3990002 265
-1.9519973 -0.89021432 3.3990002 4
-1.9455229 -0.89021432 3.3990002 4
-1.9584447 -0.89911908 3.4330001 772
-1.9519057 -0.89911908 3.4330001 66565
-1.9387772 -0.9082858 3.4680002 132104
-1.3144735 -0.6911667 2.6390002 513
-1.2990267 -0.68566668 2.618 66563
-0.22133334 -0.34780952 1.3280001 12038824
-0.21880382 -0.34780952 1.3280001 11973031
-0.21627429 -0.34780952 1.3280001 11973031
-0.21454953 -0.34911907 1.3330001 12038824
-0.21535048 -0.35461909 1.3540001 12038822
-0.21277145 -0.35461909 1.3540001 12104615
-0.21096858 -0.3559286 1.3590001 12170410
-0.1885 -0.35749999 1.365 12367537
-0.1859 -0.35749999 1.365 12301735
-0.1824943 -0.3559286 1.3590001 12301735
-0.17990573 -0.3559286 1.3590001 12367274
-0.1469 -0.35749999 1.365 12499121
-0.1443 -0.35749999 1.365 12499121
-0.1417 -0.35749999 1.365 12499121
-0.1391 -0.35749999 1.365 12499375
-0.1131 -0.35749999 1.365 11381658
-2.0526202 -0.92014009 3.5390003 533827
-1.9652002 -0.90168005 3.4680002 65809
-1.9585944 -0.90168005 3.4680002 65809
-1.3195001 -0.68614 2.6390002 27
-1.3144735 -0.68614 2.6390002 65793
-0.27466857 -0.35204002 1.3540001 11973029
-0.27208954 -0.35204002 1.3540001 12104095
-0.26951051 -0.35204002 1.3540001 12235681
-0.26594573 -0.35074005 1.3490001 12169886
-0.26220477 -0.34918001 1.3430001 12038300
-0.25964665 -0.34918001 1.3430001 11972516
-0.2570886 -0.34918001 1.3430001 12038309
-0.24025048 -0.35074005 1.3490001 11972777
-0.23768097 -0.35074005 1.3490001 12104363
-0.23511145 -0.35074005 1.3490001 11972518
-0.23254192 -0.35074005 1.3490001 12038311
-0.22894952 -0.34918001 1.3430001 11972525
-0.22639143 -0.34918001 1.3430001 11972525
-0.22133334 -0.34527999 1.3280001 12038313
-0.17924382 -0.35204002 1.3540001 12498855
-0.1760124 -0.35074005 1.3490001 12498855
-0.17344286 -0.35074005 1.3490001 12498603
-0.17087334 -0.35074005 1.3490001 12367017
-0.16830382 -0.35074005 1.3490001 12169906
-0.16573429 -0.35074005 1.3490001 12564664
-0.16316478 -0.35074005 1.3490001 12564907
-0.1495 -0.35489997 1.365 12564657
-0.1469 -0.35489997 1.365 12498864
-0.11260287 -0.35334 1.3590001 11710623
-1.8849478 -0.90410763 3.5030003 3028275
-1.309 -0.67569333 2.618 66052
-0.31320381 -0.35513908 1.376 11711143
-0.3092286 -0.35359049 1.3700001 11382178
-0.30661908 -0.35359049 1.3700001 10004397
-0.30400953 -0.35359049 1.3700001 9280674
-0.30140004 -0.35359049 1.3700001 8096139
-0.28470001 -0.35230002 1.365 12103334
-0.28086001 -0.35075146 1.3590001 12300713
-0.27827147 -0.35075146 1.3590001 12038820
-0.27466857 -0.34946096 1.3540001 11446683
-0.2570886 -0.3466219 1.3430001 11774108
-0.25566763 -0.34817052 1.3490001 11906212
-0.2530981 -0.34817052 1.3490001 11972005
-0.2505286 -0.34817052 1.3490001 11972511
-0.24795906 -0.34817052 1.3490001 12235683
-0.24538955 -0.34817052 1.3490001 11972779
-0.24282001 -0.34817052 1.3490001 11972779
-0.24025048 -0.34817052 1.3490001 11973031
-0.16062477 -0.34275049 1.3280001 12564655
-0.15809526 -0.34275049 1.3280001 12564655
-0.15556572 -0.34275049 1.3280001 12564657
-0.15303619 -0.34275049 1.3280001 12498864
-0.15288667 -0.34817052 1.3490001 12498862
-0.15031715 -0.34817052 1.3490001 12696241
-0.14829524 -0.34946096 1.3540001 12564657
-0.11177429 -0.34817052 1.3490001 11842211
-1.3295001 -0.68121052 2.6590002 131352
-0.4046638 -0.3015362 1.177 10789543
-0.40242192 -0.3015362 1.177 10394781
-0.40018001 -0.3015362 1.177 10460574
-0.39658573 -0.30051145 1.1730001 10527382
-0.39435145 -0.30051145 1.1730001 10593175
-0.39211717 -0.30051145 1.1730001 10526873
-0.39254194 -0.30256099 1.1810001 10461080
-0.29898 -0.34816286 1.3590001 10527371
-0.29530096 -0.34688193 1.3540001 10987922
-0.29272193 -0.34688193 1.3540001 11512219
-0.29121432 -0.34816286 1.3590001 11578012
-0.28862572 -0.34816286 1.3590001 11708833
-0.28344861 -0.34816286 1.3590001 11906716
-0.11434382 -0.34560096 1.3490001 12893879
-0.11177429 -0.34560096 1.3490001 12039088
-1.3345648 -0.67614579 2.6590002 4
-1.3295001 -0.67614579 2.6590002 131847
-0.39254194 -0.30031145 1.1810001 10461080
-0.28498477 -0.34430289 1.3540001 11840932
-0.28240573 -0.34430289 1.3540001 11775137
-0.11256382 -0.33769146 1.3280001 13090999
-1.3396295 -0.67108101 2.6590002 787
-0.46976572 -0.30437145 1.2060001 4274217
-0.46746862 -0.30437145 1.2060001 7302656
-0.46517146 -0.30437145 1.2060001 7960576
-0.4046638 -0.29705238 1.177 10460315
-0.39254194 -0.29806194 1.1810001 10789532
-0.39161429 -0.29907146 1.1850001 10657939
-0.39198574 -0.30109048 1.1930001 10723732
-0.38971338 -0.30109048 1.1930001 10789532
-0.34112576 -0.30437145 1.2060001 11184290
-0.33882859 -0.30437145 1.2060001 11315365
-0.31565049 -0.30866191 1.223 11579050
-0.31332093 -0.30866191 1.223 11579050
-0.11163143 -0.33238572 1.317 13419703
-1.3396295 -0.66601622 2.6590002 1047
-0.47665718 -0.30207428 1.2060001 262913
-0.47436002 -0.30207428 1.2060001 2960426
-0.47049713 -0.30107239 1.202 5654321
-0.46976572 -0.30207428 1.2060001 6772802
-0.46517146 -0.30207428 1.2060001 10653328
-0.46287432 -0.30207428 1.2060001 10591628
-0.46057719 -0.30207428 1.2060001 10854800
-0.45828003 -0.30207428 1.2060001 11051668
-0.45598289 -0.30207428 1.2060001 11183254
-0.45368573 -0.30207428 1.2060001 10855327
-0.4513886 -0.30207428 1.2060001 10657948
-0.44909143 -0.30207428 1.2060001 10526360
-0.40690571 -0.2948105 1.177 10591642
-0.4046638 -0.2948105 1.177 10591642
-0.38971338 -0.29881811 1.1930001 10986400
-0.37682858 -0.30307621 1.21 10986659
-0.37452382 -0.30307621 1.21 11052452
-0.37498763 -0.30533049 1.2190001 11184040
-0.37266576 -0.30533049 1.2190001 11184040
-0.37155905 -0.30633238 1.223 11183781
-0.37043718 -0.3073343 1.2270001 11117988
-0.36810002 -0.3073343 1.2270001 11051943
-0.36576289 -0.3073343 1.2270001 11117736
-0.3526381 -0.3040781 1.2140001 11315113
-0.35032576 -0.3040781 1.2140001 11381417
-0.3468667 -0.30307621 1.21 11249831
-0.3445619 -0.30307621 1.21 11117986
-0.34112576 -0.30207428 1.2060001 11249572
-0.33882859 -0.30207428 1.2060001 11315878
-0.31798002 -0.30633238 1.223 11840939
-0.31461811 -0.30533049 1.2190001 11776175
-0.31229621 -0.30533049 1.2190001 11578796
-0.30997431 -0.30533049 1.2190001 11512492
-0.30455428 -0.33513716 1.3380001 7827790
-0.17800096 -0.32737237 1.307 12038309
-0.16119239 -0.32361525 1.2920001 12300970
-0.15873145 -0.32361525 1.2920001 12366763
-0.15627047 -0.32361525 1.2920001 12169895
-0.11036 -0.32612002 1.302 13156279
-1.3295535 -0.65598005 2.6390002 787
-1.3245267 -0.65598005 2.6390002 4
-0.47895432 -0.29977715 1.2060001 7895151
-0.47665718 -0.29977715 1.2060001 8420734
-0.44909143 -0.29977715 1.2060001 9539976
-0.4467943 -0.29977715 1.2060001 9539976
-0.44449717 -0.29977715 1.2060001 10000518
-0.44220003 -0.29977715 1.2060001 10066311
-0.4399029 -0.29977715 1.2060001 10263188
-0.43760574 -0.29977715 1.2060001 10328981
-0.43819624 -0.30176574 1.2140001 10395026
-0.43588385 -0.30176574 1.2140001 10526612
-0.43357146 -0.30176574 1.2140001 10526864
-0.4312591 -0.30176574 1.2140001 10526864
-0.42753333 -0.30077142 1.21 10526864
-0.42382288 -0.29977715 1.2060001 10526864
-0.42152572 -0.29977715 1.2060001 10592403
-0.41922858 -0.29977715 1.2060001 10658196
-0.40690571 -0.29256859 1.177 10658459
-0.39102 -0.29753998 1.197 10131595
-0.38874 -0.29753998 1.197 9934216
-0.38807428 -0.29878286 1.202 9868171
-0.38578478 -0.29878286 1.202 9604999
-0.38349524 -0.29878286 1.202 9605258
-0.3824743 -0.29977715 1.2060001 9605258
-0.37891617 -0.29878286 1.202 9671049
-0.37662667 -0.29878286 1.202 9736842
-0.37433717 -0.29878286 1.202 9605771
-0.36457047 -0.30400285 1.223 8881794
-0.36224097 -0.30400285 1.223 8881542
-0.35991144 -0.30400285 1.223 8815749
-0.35495049 -0.30176574 1.2140001 8421252
-0.35147619 -0.30077142 1.21 8026494
-0.33541524 -0.29878286 1.202 7631727
-0.3272981 -0.30400285 1.223 7105635
-0.32496858 -0.30400285 1.223 7039072
-0.32158384 -0.30300859 1.2190001 6841693
-0.31926194 -0.30300859 1.2190001 6907484
-0.31694001 -0.30300859 1.2190001 7039070
-0.30997431 -0.30300859 1.2190001 5525849
-0.30866191 -0.30400285 1.223 4473161
-0.30633238 -0.30400285 1.223 4012871
-0.30113524 -0.32612571 1.312 8488292
-0.2986362 -0.32612571 1.312 9076872
-0.11036 -0.32364002 1.302 13090486
-1.3245267 -0.65095335 2.6390002 2
-0.48284763 -0.29846668 1.21 6710107
-0.48054287 -0.29846668 1.21 8289139
-0.33541524 -0.29649332 1.202 4079666
-0.3342343 -0.29748002 1.2060001 4146492
-0.33182669 -0.29945335 1.2140001 3357478
-0.32951429 -0.29945335 1.2140001 2962720
-0.32720193 -0.29945335 1.2140001 2962718
-0.32488954 -0.29945335 1.2140001 1910030
-0.30307621 -0.29846668 1.21 770
-0.30077142 -0.29846668 1.21 856079
-0.11240667 -0.31992668 1.2970001 12761521
-1.3039485 -0.63589144 2.598 2
-1.1384733 -0.66648668 2.723 594745
-1.1420267 -0.67162675 2.7440002 2107984
-1.1368002 -0.67162675 2.7440002 2503230
-0.49206671 -0.29616189 1.21 2568271
-0.48976189 -0.29616189 1.21 2699857
-0.48584574 -0.29518288 1.2060001 4078412
-0.48354861 -0.29518288 1.2060001 6052202
-0.48125145 -0.29518288 1.2060001 6313793
-0.3342343 -0.29518288 1.2060001 131328
-0.33303809 -0.29616189 1.21 131328
-0.30077142 -0.29616189 1.21 3746367
-0.16852859 -0.30717623 1.2550001 12300974
-0.16666763 -0.30815524 1.2590001 12235949
-0.16426952 -0.30815524 1.2590001 12499121
-0.15840001 -0.30154669 1.2320001 12367789
-0.14197333 -0.30154669 1.2320001 12565157
-0.1411 -0.30472857 1.245 12695728
-0.12830856 -0.30252573 1.2360001 13025206
-0.1259543 -0.30252573 1.2360001 12630450
-0.11240667 -0.31745619 1.2970001 12893359
-1.2944125 -0.62632865 2.5790002 2
-0.48976189 -0.29385716 1.21 1909823
-0.30077142 -0.29385716 1.21 5916475
-0.29945335 -0.29482859 1.2140001 6246987
-0.26991433 -0.29288575 1.2060001 11840423
-0.26761717 -0.29288575 1.2060001 11906216
-0.26532003 -0.29288575 1.2060001 11906212
-0.26476762 -0.29482859 1.2140001 12300970
-0.26245525 -0.29482859 1.2140001 11974058
-0.26014286 -0.29482859 1.2140001 11974058
-0.2578305 -0.29482859 1.2140001 11973545
-0.25551814 -0.29482859 1.2140001 11907752
-0.25320575 -0.29482859 1.2140001 12038313
-0.25192666 -0.29604289 1.2190001 12038313
-0.25124288 -0.29798576 1.2270001 12104104
-0.24809431 -0.2970143 1.223 12235690
-0.24576476 -0.2970143 1.223 12367283
-0.24343525 -0.2970143 1.223 12169904
-0.24110572 -0.2970143 1.223 11906727
-0.21941335 -0.29920003 1.2320001 11972520
-0.21706668 -0.29920003 1.2320001 12104106
-0.21472003 -0.29920003 1.2320001 12169636
-0.21237335 -0.29920003 1.2320001 12169636
-0.21002668 -0.29920003 1.2320001 12235431
-0.20768002 -0.29920003 1.2320001 12169638
-0.20383334 -0.2970143 1.223 11906205
-0.20150381 -0.2970143 1.223 12235170
-0.1991743 -0.2970143 1.223 12235951
-0.18656002 -0.29920003 1.2320001 12104617
-0.17570001 -0.30478573 1.2550001 12301233
-0.17330955 -0.30478573 1.2550001 12301233
-0.17091906 -0.30478573 1.2550001 12301485
-0.16852859 -0.30478573 1.2550001 12301485
-0.15840001 -0.29920003 1.2320001 12235949
-0.15605335 -0.29920003 1.2320001 12301742
-0.15308286 -0.29798576 1.2270001 12367024
-0.15074573 -0.29798576 1.2270001 12564403
-0.14840858 -0.29798576 1.2270001 12499373
-0.14607145 -0.29798576 1.2270001 12433580
-0.14373431 -0.29798576 1.2270001 12433319
-0.14197333 -0.29920003 1.2320001 12564905
-0.13872856 -0.30235714 1.245 12695980
-0.13591906 -0.30138573 1.2410001 12564396
-0.13301714 -0.30017143 1.2360001 12630189
-0.13066287 -0.30017143 1.2360001 12564655
-0.12830856 -0.30017143 1.2360001 12762034
-0.1259543 -0.30017143 1.2360001 12696500
-0.12320001 -0.29920003 1.2320001 12630707
-0.11240667 -0.31498572 1.2970001 13024695
-0.10442667 -0.29920003 1.2320001 13353660
-1.2944125 -0.62141627 2.5790002 2
-0.49206671 -0.29155239 1.21 2304581
-0.48976189 -0.29155239 1.21 1580858
-0.29945335 -0.2925162 1.2140001 9604745
-0.29714096 -0.2925162 1.2140001 9867917
-0.29482859 -0.2925162 1.2140001 9932685
-0.29998761 -0.31492478 1.307 10985875
-0.27221143 -0.29058859 1.2060001 10656665
-0.26991433 -0.29058859 1.2060001 10854044
-0.23854285 -0.29155239 1.21 12104106
-0.23545715 -0.29058859 1.2060001 12104106
-0.23316002 -0.29058859 1.2060001 12235438
-0.22176002 -0.29685333 1.2320001 12564905
-0.21941335 -0.29685333 1.2320001 12498601
-0.19852288 -0.29372096 1.2190001 12564914
-0.19684477 -0.29468477 1.223 12762293
-0.19451524 -0.29468477 1.223 12762032
-0.19218573 -0.29468477 1.223 12762032
-0.1898562 -0.29468477 1.223 12696241
-0.18814 -0.2956486 1.2270001 12630448
-0.18656002 -0.29685333 1.2320001 12630450
-0.18481143 -0.29781714 1.2360001 12630450
-0.18245716 -0.29781714 1.2360001 12696239
-0.18083143 -0.29902193 1.2410001 12827825
-0.17846762 -0.29902193 1.2410001 12827827
-0.17667143 -0.29998574 1.245 13025206
-0.17374 -0.29902193 1.2410001 13025208
-0.12320001 -0.29685333 1.2320001 13551039
-0.12085334 -0.29685333 1.2320001 13090490
-0.11850668 -0.29685333 1.2320001 12958904
-0.11568858 -0.2956486 1.2270001 13089977
-0.11335144 -0.2956486 1.2270001 13616321
-0.11146668 -0.29685333 1.2320001 13485750
-0.10912001 -0.29685333 1.2320001 13551543
-0.10677334 -0.29685333 1.2320001 13419966
-0.10442667 -0.29685333 1.2320001 13288380
-0.10208001 -0.29685333 1.2320001 12498367
-0.14805621 -0.45130384 1.8730001 8686477
-1.2993249 -0.61650383 2.5790002 20
-0.49206671 -0.28924763 1.21 2500665
-0.29385716 -0.28924763 1.21 9210509
-0.29155239 -0.28924763 1.21 9671060
-0.28233334 -0.28924763 1.21 8882827
-0.28002858 -0.28924763 1.21 9145220
-0.27772382 -0.28924763 1.21 9145220
-0.27632955 -0.29020384 1.2140001 9079427
-0.27221143 -0.28829145 1.2060001 8947841
-0.23316002 -0.28829145 1.2060001 10788251
-0.23239431 -0.29020384 1.2140001 10919837
-0.23008192 -0.29020384 1.2140001 11051427
-0.22776954 -0.29020384 1.2140001 11248806
-0.22545716 -0.29020384 1.2140001 11446183
-0.22314477 -0.29020384 1.2140001 11446183
-0.22083241 -0.29020384 1.2140001 11511717
-0.21942002 -0.29139906 1.2190001 11577510
-0.10208001 -0.2945067 1.2320001 12169384
-0.10005715 -0.29546288 1.2360001 10721938
-0.13390286 -0.46040574 1.9260001 15858171
-1.2944125 -0.61159152 2.5790002 65809
-0.49206671 -0.28694287 1.21 2107954
-0.29155239 -0.28694287 1.21 8683652
-0.28924763 -0.28694287 1.21 8881022
-0.28789148 -0.28789148 1.2140001 8420471
-0.28557909 -0.28789148 1.2140001 8223094
-0.28233334 -0.28694287 1.21 7301992
-1.2944125 -0.60667908 2.5790002 197138
-1.2594115 -0.61114854 2.598 524
-1.2742602 -0.6207934 2.6390002 1292
-0.49206671 -0.28463808 1.21 1385778
-0.097702861 -0.29075432 1.2360001 9148066
-1.2944125 -0.60176671 2.5790002 66315
-1.26436 -0.60619998 2.598 132367
-0.49206671 -0.28233334 1.21 198193
-0.097702861 -0.28839999 1.2360001 11710393
-1.3088971 -0.60125142 2.598 132108
-1.2944125 -0.59685433 2.5790002 131854
-1.2693086 -0.60125142 2.598 197897
-0.49206671 -0.28002858 1.21 525340
-0.097702861 -0.28604573 1.2360001 12499157
-0.12423715 -0.45059144 1.9470001 16252670
-0.12052858 -0.45059144 1.9470001 16252670
-0.10455429 -0.44573146 1.9260001 16252670
-0.10088572 -0.44573146 1.9260001 16252670
-0.097217143 -0.44573146 1.9260001 16252670
-0.093548574 -0.44573146 1.9260001 16318463
-0.027657144 -0.44804573 1.9360001 16580606
-0.024105716 -0.45059144 1.9470001 16580606
-0.020281905 -0.44804573 1.9360001 16646142
-1.3088971 -0.59630287 2.598 263433
-1.2944125 -0.59194195 2.5790002 198410
-1.2742571 -0.59630287 2.598 197647
-0.49206671 -0.27772382 1.21 396055
-0.097702861 -0.28369144 1.2360001 13287624
-0.12195238 -0.45216194 1.9700001 6256555
-0.1182 -0.45216194 1.9700001 6322863
-0.11247239 -0.44435811 1.9360001 6586035
-0.10878477 -0.44435811 1.9360001 6979767
-0.093548574 -0.44206285 1.9260001 8032198
-0.089880005 -0.44206285 1.9260001 8295370
-0.086211428 -0.44206285 1.9260001 8689360
-0.061191436 -0.44688287 1.9470001 10136032
-0.057837147 -0.44963714 1.9590001 10332643
-0.054105718 -0.44963714 1.9590001 10464229
-0.050657146 -0.45216194 1.9700001 10595304
-0.046904765 -0.45216194 1.9700001 10595304
-0.043393333 -0.45468667 1.9810001 10858465
-0.039400004 -0.45216194 1.9700001 11319016
-0.035647623 -0.45216194 1.9700001 11910389
-0.031717144 -0.44963714 1.9590001 12107768
-0.027985716 -0.44963714 1.9590001 11910387
-0.020397143 -0.44688287 1.9470001 11516145
-0.016594287 -0.44435811 1.9360001 12371454
-0.01284 -0.44206285 1.9260001 13554160
-0.0091714291 -0.44206285 1.9260001 15133183
-0.0055028573 -0.44206285 1.9260001 14738686
-0.0018342858 -0.44206285 1.9260001 13093861
0.0018438096 -0.44435811 1.9360001 12766714
0.0055314288 -0.44435811 1.9360001 13095679
0.0092190476 -0.44435811 1.9360001 13751549
0.01298 -0.44688287 1.9470001 14014719
-1.3039485 -0.59135425 2.598 264469
-1.2742571 -0.59135425 2.598 263699
-0.49369338 -0.27632955 1.2140001 396055
-0.48976189 -0.27541906 1.21 269
-0.097702861 -0.28133717 1.2360001 13552352
-0.086659051 -0.44067052 1.9360001 5198729
-0.082971431 -0.44067052 1.9360001 5198729
-0.080225721 -0.44590572 1.9590001 5395858
-0.076494291 -0.44590572 1.9590001 5330065
-0.065300003 -0.44590572 1.9590001 5592458
-0.061914288 -0.44840956 1.9700001 5789837
0.013133334 -0.44840956 1.9700001 8621764
0.016791429 -0.44590572 1.9590001 8688586
0.020522859 -0.44590572 1.9590001 8885965
0.023969525 -0.44067052 1.9360001 9018323
0.027514286 -0.43839431 1.9260001 9084116
0.090860009 -0.4431743 1.9470001 11780589
0.094568573 -0.4431743 1.9470001 12109554
0.098277152 -0.4431743 1.9470001 12438262
0.10198572 -0.4431743 1.9470001 12372469
0.10634572 -0.44590572 1.9590001 12306935
0.11069525 -0.44840956 1.9700001 12306935
0.11444762 -0.44840956 1.9700001 12438008
0.19993715 -0.43839431 1.9260001 11975123
0.20360573 -0.43839431 1.9260001 11975123
0.2072743 -0.43839431 1.9260001 12041175
0.21094288 -0.43839431 1.9260001 14541309
0.21461144 -0.43839431 1.9260001 14280954
0.21828002 -0.43839431 1.9260001 14346747
0.22194859 -0.43839431 1.9260001 14806262
0.22561716 -0.43839431 1.9260001 14806262
0.2304762 -0.44067052 1.9360001 14740728
0.23416382 -0.44067052 1.9360001 14806521
0.23785144 -0.44067052 1.9360001 14806775
0.24153906 -0.44067052 1.9360001 14872568
0.26366478 -0.44067052 1.9360001 15267071
0.26735237 -0.44067052 1.9360001 15398911
0.27103999 -0.44067052 1.9360001 15398911
0.27472764 -0.44067052 1.9360001 15464703
0.27841526 -0.44067052 1.9360001 15530495
0.28210285 -0.44067052 1.9360001 15661823
0.2857905 -0.44067052 1.9360001 15727615
0.28798288 -0.43839431 1.9260001 15793407
-1.3039485 -0.58640569 2.598 329758
-1.1970667 -0.60491431 2.6800001 131882
-0.48814291 -0.27221143 1.2060001 19
-0.099733338 -0.27808005 1.2320001 13812428
-0.07782191 -0.44984859 1.9930001 6842247
-0.073171437 -0.44465718 1.9700001 6711431
-0.069419056 -0.44465718 1.9700001 6843017
-0.066033334 -0.44714001 1.9810001 6842490
0.027514286 -0.43472573 1.9260001 5727878
0.031182857 -0.43472573 1.9260001 5596802
0.04559524 -0.43224287 1.9150001 5596800
0.050065719 -0.43946573 1.9470001 5596800
0.05377429 -0.43946573 1.9470001 5530765
0.05848667 -0.44714001 1.9810001 5464972
0.062260002 -0.44714001 1.9810001 5334657
0.064533338 -0.43698287 1.9360001 5400450
0.068220958 -0.43698287 1.9360001 5597829
0.071908578 -0.43698287 1.9360001 5466243
0.075596198 -0.43698287 1.9360001 5466497
0.079283811 -0.43698287 1.9360001 5598083
0.082971431 -0.43698287 1.9360001 5597580
0.086659051 -0.43698287 1.9360001 5465994
0.090860009 -0.43946573 1.9470001 5400963
0.11958 -0.44984859 1.9930001 5334671
0.12337621 -0.44984859 1.9930001 5400464
0.12640667 -0.44714001 1.9810001 5334671
0.12794574 -0.43946573 1.9470001 5399440
0.13165429 -0.43946573 1.9470001 5333647
0.13536286 -0.43946573 1.9470001 5268867
0.13828573 -0.43698287 1.9360001 5203074
0.16041143 -0.43698287 1.9360001 6056857
0.16409907 -0.43698287 1.9360001 6253977
0.16778667 -0.43698287 1.9360001 6319770
0.17147429 -0.43698287 1.9360001 6385302
0.17516191 -0.43698287 1.9360001 6451095
0.17884953 -0.43698287 1.9360001 7173014
0.18253715 -0.43698287 1.9360001 7304600
0.18622477 -0.43698287 1.9360001 7566726
0.18991238 -0.43698287 1.9360001 8027277
0.19260001 -0.43472573 1.9260001 7896224
0.19626859 -0.43472573 1.9260001 7764638
0.19993715 -0.43472573 1.9260001 7371414
0.24153906 -0.43698287 1.9360001 4418448
0.24522667 -0.43698287 1.9360001 4221589
0.2489143 -0.43698287 1.9360001 4090003
0.25403714 -0.43946573 1.9470001 4156314
0.25774574 -0.43946573 1.9470001 4287900
0.26145428 -0.43946573 1.9470001 3894171
0.26516289 -0.43946573 1.9470001 4025757
0.28947812 -0.43698287 1.9360001 4025764
0.29316571 -0.43698287 1.9360001 4091557
0.29685333 -0.43698287 1.9360001 4092070
0.30054098 -0.43698287 1.9360001 4026277
0.30966574 -0.43946573 1.9470001 3765161
0.31337431 -0.43946573 1.9470001 3961513
0.31529146 -0.43698287 1.9360001 3895720
0.31897905 -0.43698287 1.9360001 3962029
0.32100001 -0.43472573 1.9260001 4093615
0.32466859 -0.43472573 1.9260001 5011373
0.32833716 -0.43472573 1.9260001 5340338
0.36529431 -0.43946573 1.9470001 6456262
0.41485718 -0.43698287 1.9360001 9149923
0.41854477 -0.43698287 1.9360001 9478888
0.42223239 -0.43698287 1.9360001 9741294
0.42592004 -0.43698287 1.9360001 9741294
0.43204859 -0.43946573 1.9470001 9938673
0.43575719 -0.43946573 1.9470001 10201845
0.43946573 -0.43946573 1.9470001 10071027
0.4431743 -0.43946573 1.9470001 10071027
0.44688287 -0.43946573 1.9470001 10203126
0.47017145 -0.43698287 1.9360001 9940991
0.47385907 -0.43698287 1.9360001 9612799
0.47754669 -0.43698287 1.9360001 9415423
0.47874859 -0.43472573 1.9260001 9349882
-1.3039485 -0.58145714 2.598 462877
-1.299 -0.58145714 2.598 462877
-1.274763 -0.57720482 2.5790002 528670
-1.2021714 -0.59980953 2.6800001 1315902
-0.48814291 -0.26991433 1.2060001 526
-0.099733338 -0.27573335 1.2320001 13550546
0.031344764 -0.43329525 1.9360001 7829133
0.03503238 -0.43329525 1.9360001 7829133
0.038520001 -0.43105716 1.9260001 7959951
0.041947622 -0.42859524 1.9150001 7959951
0.04559524 -0.42859524 1.9150001 7894154
0.13828573 -0.43329525 1.9360001 7500429
0.14197333 -0.43329525 1.9360001 7632015
0.14566097 -0.43329525 1.9360001 7632015
0.14934857 -0.43329525 1.9360001 7697547
0.15303619 -0.43329525 1.9360001 7763340
0.15672383 -0.43329525 1.9360001 7697305
0.16041143 -0.43329525 1.9360001 7828891
0.3022486 -0.43575719 1.9470001 5923992
0.30595717 -0.43575719 1.9470001 5858199
0.30966574 -0.43575719 1.9470001 5792406
0.32833716 -0.43105716 1.9260001 5923992
0.32821333 -0.42613333 1.904 5595038
0.33184001 -0.42613333 1.904 5595038
0.33740479 -0.42859524 1.9150001 5265821
0.34301144 -0.43105716 1.9260001 5660579
0.36158574 -0.43575719 1.9470001 5595043
0.36529431 -0.43575719 1.9470001 5331873
0.37711433 -0.4409048 1.9700001 5463457
0.38086671 -0.4409048 1.9700001 5595043
0.38620287 -0.43844289 1.9590001 5529252
0.3899343 -0.43844289 1.9590001 5265571
0.39366573 -0.43844289 1.9590001 5265571
0.39739716 -0.43844289 1.9590001 5397157
0.40112859 -0.43844289 1.9590001 5265571
0.40486002 -0.43844289 1.9590001 5199776
0.40859145 -0.43844289 1.9590001 5002397
0.40979716 -0.43575719 1.9470001 4739484
0.41350573 -0.43575719 1.9470001 4739484
0.41721433 -0.43575719 1.9470001 4936606
0.45336857 -0.43844289 1.9590001 5924017
0.45430005 -0.43575719 1.9470001 5859255
0.45800859 -0.43575719 1.9470001 5925048
0.46456286 -0.43844289 1.9590001 5860286
0.46829429 -0.43844289 1.9590001 5860286
0.4691343 -0.43575719 1.9470001 5860032
0.4728429 -0.43575719 1.9470001 5860032
0.48396862 -0.43575719 1.9470001 6189249
0.48492193 -0.43329525 1.9360001 6255042
0.48860955 -0.43329525 1.9360001 6387139
0.49229717 -0.43329525 1.9360001 6387139
0.59555054 -0.43329525 1.9360001 10007295
0.5992381 -0.43329525 1.9360001 10007807
0.60635149 -0.43575719 1.9470001 10073599
0.61006004 -0.43575719 1.9470001 10073343
0.61376858 -0.43575719 1.9470001 10336511
0.61747718 -0.43575719 1.9470001 10796543
0.61767626 -0.43329525 1.9360001 10862335
0.62136382 -0.43329525 1.9360001 10928895
0.62505144 -0.43329525 1.9360001 10928895
0.62873906 -0.43329525 1.9360001 10994175
0.63242668 -0.43329525 1.9360001 11125759
0.63282859 -0.43105716 1.9260001 11191807
0.63649714 -0.43105716 1.9260001 11323391
0.63650954 -0.42859524 1.9150001 11389439
0.64015716 -0.42859524 1.9150001 11521023
0.64380479 -0.42859524 1.9150001 11783935
0.64745241 -0.42859524 1.9150001 11783935
0.65110004 -0.42859524 1.9150001 11849471
0.65474766 -0.42859524 1.9150001 12046847
-1.8582582 -0.77733243 3.5030003 5663856
-1.299 -0.57650852 2.598 988194
-1.2940514 -0.57650852 2.598 988982
-1.2796754 -0.57229239 2.5790002 791603
-1.2021714 -0.59470475 2.6800001 2170193
-0.48814291 -0.26761717 1.2060001 1297
0.34675145 -0.43204859 1.9470001 8094123
0.35046002 -0.43204859 1.9470001 7962798
0.35416859 -0.43204859 1.9470001 7831212
0.35787717 -0.43204859 1.9470001 7897007
0.36158574 -0.43204859 1.9470001 8160179
0.49509433 -0.43204859 1.9470001 6714800
0.4988029 -0.43204859 1.9470001 6780589
0.49967238 -0.42960763 1.9360001 6780589
0.50336003 -0.42960763 1.9360001 6715568
0.50992858 -0.43204859 1.9470001 6649775
0.51363719 -0.43204859 1.9470001 6846643
0.51734573 -0.43204859 1.9470001 6715057
0.51811051 -0.42960763 1.9360001 7241131
0.52179807 -0.42960763 1.9360001 7833268
0.54392385 -0.42960763 1.9360001 3821984
0.5507229 -0.43204859 1.9470001 3696817
0.55443144 -0.43204859 1.9470001 4157368
0.55814004 -0.43204859 1.9470001 5205425
0.56184858 -0.43204859 1.9470001 5008046
0.58039147 -0.43204859 1.9470001 4419502
0.58410007 -0.43204859 1.9470001 4090537
0.59516287 -0.43471146 1.9590001 4155560
0.5988943 -0.43471146 1.9590001 4090546
0.60262573 -0.43471146 1.9590001 3893167
0.65474766 -0.42494762 1.9150001 1794229
0.65839523 -0.42494762 1.9150001 1728949
0.66204286 -0.42494762 1.9150001 1597363
0.66569048 -0.42494762 1.9150001 1860022
0.66933817 -0.42494762 1.9150001 1991608
0.67298573 -0.42494762 1.9150001 1860794
0.67663336 -0.42494762 1.9150001 1597622
0.68028098 -0.42494762 1.9150001 1532347
0.68392855 -0.42494762 1.9150001 1598140
0.68757617 -0.42494762 1.9150001 2122681
0.69122386 -0.42494762 1.9150001 2320060
0.69487149 -0.42494762 1.9150001 1598140
0.71019149 -0.43204859 1.9470001 1400761
0.75389147 -0.42738858 1.9260001 1335754
0.75756001 -0.42738858 1.9260001 1599430
0.76122862 -0.42738858 1.9260001 1928395
0.76489717 -0.42738858 1.9260001 2059468
0.82726288 -0.42738858 1.9260001 5475557
0.83093143 -0.42738858 1.9260001 5803239
0.83460009 -0.42738858 1.9260001 5934825
0.83826864 -0.42738858 1.9260001 6000618
0.84630859 -0.42960763 1.9360001 6066411
0.84999621 -0.42960763 1.9360001 6460144
0.85737145 -0.42960763 1.9360001 6920690
-1.1978163 -0.58498007 2.6590002 3486275
-0.48814291 -0.26532003 1.2060001 66826
-0.099733338 -0.27104002 1.2320001 13616593
0.50560862 -0.43098003 1.9590001 7963332
0.50933999 -0.43098003 1.9590001 7831748
0.52476287 -0.42834002 1.9470001 8227526
0.52847147 -0.42834002 1.9470001 8885697
0.53218007 -0.42834002 1.9470001 12964863
0.53588861 -0.42834002 1.9470001 15528447
0.53959715 -0.42834002 1.9470001 13686243
0.54330575 -0.42834002 1.9470001 8230347
0.54701436 -0.42834002 1.9470001 5993385
0.57650578 -0.43098003 1.9590001 7174595
0.58023715 -0.43098003 1.9590001 7174595
0.71830004 -0.43098003 1.9590001 5598150
0.72203147 -0.43098003 1.9590001 5663943
0.73188007 -0.42372003 1.9260001 5663938
0.73554862 -0.42372003 1.9260001 5204934
0.73921716 -0.42372003 1.9260001 5073348
0.74288571 -0.42372003 1.9260001 4547522
0.75043046 -0.42592004 1.9360001 5205452
0.75411814 -0.42592004 1.9360001 5139398
0.76211149 -0.42834002 1.9470001 4876226
0.78324002 -0.42372003 1.9260001 4482250
0.78690857 -0.42372003 1.9260001 4481732
0.79057723 -0.42372003 1.9260001 4415939
0.79424578 -0.42372003 1.9260001 4350403
0.79791433 -0.42372003 1.9260001 4416196
0.80158287 -0.42372003 1.9260001 4086720
0.80525148 -0.42372003 1.9260001 4481478
0.80892003 -0.42372003 1.9260001 4612548
0.81258863 -0.42372003 1.9260001 4678341
0.81625718 -0.42372003 1.9260001 4087492
0.81992579 -0.42372003 1.9260001 4284871
0.82359433 -0.42372003 1.9260001 3628227
0.83155811 -0.42592004 1.9360001 3891399
0.91606575 -0.43098003 1.9590001 5534669
0.92496198 -0.43340003 1.9700001 5599951
0.92871433 -0.43340003 1.9700001 5665744
0.92726004 -0.43098003 1.9590001 5665742
0.93099147 -0.43098003 1.9590001 5863121
0.93845433 -0.43098003 1.9590001 6061011
0.94218576 -0.43098003 1.9590001 5996242
0.94591719 -0.43098003 1.9590001 6391000
0.94964862 -0.43098003 1.9590001 6719452
0.95866579 -0.42834002 1.9470001 7441371
0.96830577 -0.43098003 1.9590001 7375578
0.98462576 -0.42834002 1.9470001 8624610
0.98275054 -0.42592004 1.9360001 8494823
1.0280086 -0.43098003 1.9590001 9349355
1.0317401 -0.43098003 1.9590001 9480682
1.0354716 -0.43098003 1.9590001 9546475
1.0450381 -0.43340003 1.9700001 9612268
-1.202881 -0.57991523 2.6590002 1513239
-1.1978163 -0.57991523 2.6590002 2960685
-0.48976189 -0.26389524 1.21 1033
-0.097386681 -0.26869336 1.2320001 13222594
0.74068856 -0.4272486 1.9590001 8163282
0.74442005 -0.4272486 1.9590001 8294868
0.78807145 -0.42463145 1.9470001 7506649
0.79178005 -0.42463145 1.9470001 7572442
0.90114009 -0.4272486 1.9590001 5203885
0.98275054 -0.42223239 1.9360001 540543
0.9864381 -0.42223239 1.9360001 474750
0.99012578 -0.42223239 1.9360001 604796
0.9994601 -0.42463145 1.9470001 407417
1.0150191 -0.42964765 1.9700001 471929
1.0187715 -0.42964765 1.9700001 603515
1.0525429 -0.42964765 1.9700001 605046
1.0562953 -0.42964765 1.9700001 670839
1.0541286 -0.4272486 1.9590001 540793
1.0454401 -0.42223239 1.9360001 672379
1.0491277 -0.42223239 1.9360001 672379
-0.49340484 -0.26353619 1.2190001 66826
0.89367718 -0.42351717 1.9590001 6650815
0.8974086 -0.42351717 1.9590001 6780348
0.90620005 -0.42589527 1.9700001 6846141
1.0735134 -0.42827335 1.9810001 2638460
1.0713049 -0.42589527 1.9700001 2770046
1.0750571 -0.42589527 1.9700001 2900603
1.0788096 -0.42589527 1.9700001 2966396
-0.49369338 -0.26014286 1.2140001 461848
-0.49138102 -0.26014286 1.2140001 1297
-0.099733338 -0.264 1.2320001 13747148
-1.2266467 -0.57831335 2.723 396055
-0.49369338 -0.2578305 1.2140001 724756
-0.097386681 -0.26165336 1.2320001 12697554
-0.49572673 -0.25657049 1.2190001 724756
-0.097702861 -0.26014858 1.2360001 12828352
-1.3044201 -0.55042005 2.6390002 772
-0.49572673 -0.25424859 1.2190001 527643
-0.098098099 -0.25883716 1.2410001 12697556
-0.096042857 -0.25967142 1.245 9605285
-1.4582486 -0.57639337 2.789 5728118
-1.4488496 -0.58114666 2.812 2437428
-1.3044201 -0.54539335 2.6390002 772
-0.49735335 -0.25275335 1.223 789266
-0.49502382 -0.25275335 1.223 460301
-1.4635609 -0.57108098 2.789 5135463
-1.4582486 -0.57108098 2.789 4609119
-1.4661 -0.58050001 2.835 3228250
-1.4488496 -0.57579046 2.812 1780804
-1.3143058 -0.54446197 2.6590002 772
-0.49502382 -0.25042382 1.223 591887
-0.096042857 -0.25492856 1.245 9802664
-1.4496733 -0.55238003 2.723 921102
-1.4444867 -0.55238003 2.723 789516
-1.4392999 -0.55238003 2.723 134407
-1.4688734 -0.5657686 2.789 2821
-1.4635609 -0.5657686 2.789 1283
-1.3929068 -0.55664003 2.7440002 131588
-1.3770601 -0.55238003 2.723 770
-1.3044201 -0.53534007 2.6390002 66817
-0.49502382 -0.24809431 1.223 460051
-0.096042857 -0.25255713 1.245 9409180
-1.4600468 -0.54719335 2.723 262920
-1.45486 -0.54719335 2.723 197127
-1.4496733 -0.54719335 2.723 131588
-1.3044201 -0.53031337 2.6390002 66311
-1.2993933 -0.53031337 2.6390002 197897
-1.2585934 -0.53433239 2.6590002 922401
-1.2535286 -0.53433239 2.6590002 856104
-0.49502382 -0.24576476 1.223 591887
-0.49269432 -0.24576476 1.223 263183
-0.096428573 -0.25119048 1.25 9607584
-1.5119133 -0.54200667 2.723 264469
-1.5067266 -0.54200667 2.723 1040
-1.5131201 -0.54618669 2.7440002 66311
-1.5078934 -0.54618669 2.7440002 66311
-1.4911666 -0.54200667 2.723 772
-1.48598 -0.54200667 2.723 772
-1.4688296 -0.53762764 2.7010002 66315
-1.4636849 -0.53762764 2.7010002 522
-1.4585401 -0.53762764 2.7010002 515
-1.4533952 -0.53762764 2.7010002 772
-1.4600468 -0.54200667 2.723 131586
-1.2993933 -0.52528667 2.6390002 132610
-1.2943667 -0.52528667 2.6390002 132104
-1.2484639 -0.52926761 2.6590002 856608
-0.49269432 -0.24343525 1.223 527137
-0.098414287 -0.24781427 1.245 12764355
-1.9983782 -0.69059145 3.5030003 6055291
-1.53266 -0.53681999 2.723 3951716
-1.5274733 -0.53681999 2.723 1977926
-1.5222867 -0.53681999 2.723 268839
-1.5288001 -0.54096007 2.7440002 3868
-1.5119133 -0.53681999 2.723 131854
-1.34594 -0.53681999 2.723 66563
-1.3407533 -0.53681999 2.723 132356
-1.2943667 -0.52025998 2.6390002 132610
-0.49269432 -0.24110572 1.223 1051686
-0.098414287 -0.24544285 1.245 12960451
-1.5378467 -0.53163338 2.723 583
-1.53266 -0.53163338 2.723 527
-0.49269432 -0.23877619 1.223 789025
-0.098414287 -0.24307144 1.245 12435120
-1.5482199 -0.52644664 2.723 9790
-1.5430334 -0.52644664 2.723 2578
-1.5378467 -0.52644664 2.723 522
-0.49269432 -0.23644668 1.223 527643
-0.098809525 -0.24166666 1.25 11712962
-2.0317402 -0.67057431 3.5030003 7308442
-1.5585934 -0.52125996 2.723 89
-1.5534067 -0.52125996 2.723 513
-1.5482199 -0.52125996 2.723 513
-1.2379048 -0.51302856 2.6800001 726312
-0.49269432 -0.23411715 1.223 591894
-2.0317402 -0.66390193 3.5030003 7440036
-1.5585934 -0.51607335 2.723 12
-1.2379048 -0.50792378 2.6800001 857898
-0.49269432 -0.23178764 1.223 657680
-0.098809525 -0.23690476 1.25 12368843
-1.5585934 -0.51088667 2.723 27
-1.5534067 -0.51088667 2.723 11
-1.2379048 -0.50281906 2.6800001 1187113
-1.2328 -0.50281906 2.6800001 1252654
-1.19034 -0.51088667 2.723 1055277
-0.49269432 -0.22945811 1.223 461584
-0.49036476 -0.22945811 1.223 776
-0.099204771 -0.23546192 1.2550001 12434375
-1.5653868 -0.50959998 2.7440002 65795
-1.2328 -0.49771431 2.6800001 1316653
-1.2276953 -0.49771431 2.6800001 1053481
-1.1942934 -0.50959998 2.7440002 857396
-1.1890668 -0.50959998 2.7440002 792355
-1.18384 -0.50959998 2.7440002 660769
-1.1786134 -0.50959998 2.7440002 594463
-1.1733867 -0.50959998 2.7440002 462877
-1.1681601 -0.50959998 2.7440002 593436
-0.49196863 -0.22787145 1.2270001 776
-0.099204771 -0.23307145 1.2550001 12369100
-2.0526202 -0.65050191 3.5390003 7373730
-2.0323973 -0.65050191 3.5390003 85
-1.5534067 -0.50051332 2.723 259
-0.49397337 -0.22645335 1.2320001 132619
-0.099204771 -0.23068097 1.2550001 12302787
-2.0536458 -0.65049148 3.5760002 732525
-1.5534067 -0.49532667 2.723 22
-1.2214601 -0.49532667 2.723 2304080
-1.2064466 -0.49132481 2.7010002 1975115
-1.2013019 -0.49132481 2.7010002 1319485
-1.2059001 -0.49532667 2.723 1253692
-0.49397337 -0.22410668 1.2320001 519
-0.49162674 -0.22410668 1.2320001 1246720
-1.5534067 -0.49014002 2.723 402522
-1.5482199 -0.49014002 2.723 3652
-1.5430334 -0.49014002 2.723 22
-1.5378467 -0.49014002 2.723 21
-1.53266 -0.49014002 2.723 2
-0.49162674 -0.22176002 1.2320001 196864
-0.099520952 -0.22662002 1.2590001 12171212
-1.53266 -0.48495334 2.723 398117
-1.5274733 -0.48495334 2.723 661289
-1.5099878 -0.48103526 2.7010002 726595
-1.4931428 -0.47729525 2.6800001 2615
-0.49322289 -0.22012573 1.2360001 131328
-0.099204771 -0.22350955 1.2550001 12105932
-1.4931428 -0.4721905 2.6800001 2173229
-1.4880382 -0.4721905 2.6800001 331795
-1.4829334 -0.4721905 2.6800001 2573
-0.49162674 -0.21706668 1.2320001 0
-0.099204771 -0.22111906 1.2550001 12237005
-0.09681429 -0.22111906 1.2550001 11513282
-0.094423823 -0.22111906 1.2550001 11121375
-1.4602468 -0.45994005 2.6390002 3369
-1.4552201 -0.45994005 2.6390002 329758
-1.4510543 -0.46342573 2.6590002 1801
-1.4459896 -0.46342573 2.6590002 198403
-1.4523048 -0.46708572 2.6800001 1024
-1.4206657 -0.46342573 2.6590002 65793
-1.4267809 -0.46708572 2.6800001 515
-1.4328163 -0.47074577 2.7010002 515
-1.4165714 -0.46708572 2.6800001 772
-0.49162674 -0.21472003 1.2320001 0
-0.09681429 -0.21872859 1.2550001 11579073
-1.4552201 -0.45491335 2.6390002 592930
-1.4501934 -0.45491335 2.6390002 395551
-1.4451667 -0.45491335 2.6390002 133653
-1.4401401 -0.45491335 2.6390002 67860
-1.4523048 -0.46198097 2.6800001 461834
-1.4472001 -0.46198097 2.6800001 461834
-1.4307953 -0.45836097 2.6590002 461834
-1.4257306 -0.45836097 2.6590002 330248
-1.4165714 -0.46198097 2.6800001 131854
-1.4114667 -0.46198097 2.6800001 268
-1.395342 -0.45836097 2.6590002 2
-1.3902773 -0.45836097 2.6590002 2
-1.3852125 -0.45836097 2.6590002 2
-1.3801476 -0.45836097 2.6590002 2
-1.3968029 -0.465601 2.7010002 515
-1.3096333 -0.46939334 2.723 770
-1.2939078 -0.465601 2.7010002 131586
-0.48963144 -0.21151145 1.2270001 131586
-0.09681429 -0.21633811 1.2550001 11710402
-1.3968029 -0.46045622 2.7010002 261
-1.3916582 -0.46045622 2.7010002 518
-1.3865135 -0.46045622 2.7010002 772
-1.3813686 -0.46045622 2.7010002 772
-1.3762239 -0.46045622 2.7010002 770
-1.3710791 -0.46045622 2.7010002 770
-1.2940571 -0.45687619 2.6800001 131586
-1.2733287 -0.46045622 2.7010002 770
-1.2681839 -0.46045622 2.7010002 770
-0.48803523 -0.20849238 1.223 394240
-0.09681429 -0.21394764 1.2550001 11710400
-1.3710791 -0.45531145 2.7010002 65793
-1.3659344 -0.45531145 2.7010002 65793
-1.3607897 -0.45531145 2.7010002 65793
-1.3556448 -0.45531145 2.7010002 770
-1.2785133 -0.45901999 2.723 131586
-1.2630392 -0.45531145 2.7010002 131588
-1.202881 -0.44823146 2.6590002 132610
-0.48803523 -0.20616287 1.223 66304
-0.09681429 -0.21155716 1.2550001 12236996
-1.3556448 -0.4501667 2.7010002 515
-1.3505001 -0.4501667 2.7010002 515
-1.3453554 -0.4501667 2.7010002 770
-1.3402106 -0.4501667 2.7010002 513
-0.48643908 -0.20316668 1.2190001 65536
-0.098809525 -0.20833333 1.25 12500427
-1.3511267 -0.44864666 2.723 65793
-1.3246857 -0.44156191 2.6800001 65793
-1.2473934 -0.44864666 2.723 518
-1.2225906 -0.44156191 2.6800001 772
-1.2174857 -0.44156191 2.6800001 772
-0.48643908 -0.20084478 1.2190001 592137
-0.48411715 -0.20084478 1.2190001 2631720
-0.099204771 -0.2067762 1.2550001 12434636
-1.3246857 -0.43645713 2.6800001 65795
-1.319581 -0.43645713 2.6800001 65795
-1.3144763 -0.43645713 2.6800001 65793
-1.3093715 -0.43645713 2.6800001 65793
-1.3042667 -0.43645713 2.6800001 65795
-1.2991619 -0.43645713 2.6800001 65795
-1.2940571 -0.43645713 2.6800001 65795
-1.2681839 -0.43987718 2.7010002 131588
-1.253219 -0.43645713 2.6800001 772
-1.2481143 -0.43645713 2.6800001 772
-1.2430096 -0.43645713 2.6800001 772
-1.2379048 -0.43645713 2.6800001 66565
-0.48729435 -0.19982573 1.2270001 1973549
-0.09991619 -0.20585144 1.2640001 12434636
-1.319581 -0.43135238 2.6800001 263
-0.48928002 -0.19829336 1.2320001 1645119
-0.48928002 -0.19594668 1.2320001 986939
-0.099520952 -0.20024095 1.2590001 12237777
-0.48928002 -0.19360001 1.2320001 723767
-0.09991619 -0.19862857 1.2640001 12369109
-2.0077448 -0.57313907 3.6920002 133894
-2.0007124 -0.57313907 3.6920002 397066
-1.99368 -0.57313907 3.6920002 331795
-0.4908686 -0.1918743 1.2360001 987688
-0.09991619 -0.19622096 1.2640001 12238295
-1.97262 -0.56012666 3.6530001 593170
-1.8529029 -0.53176004 3.4680002 593436
-1.8462971 -0.53176004 3.4680002 593436
-1.8582582 -0.53712672 3.5030003 856608
-1.8515859 -0.53712672 3.5030003 989484
-0.4908686 -0.18952 1.2360001 1118256
-0.09991619 -0.19381334 1.2640001 12238295
-1.9719087 -0.54150862 3.5760002 395791
-1.9650972 -0.54150862 3.5760002 790549
-1.97262 -0.55316859 3.6530001 593170
-1.8529029 -0.52515435 3.4680002 593436
-1.8462971 -0.52515435 3.4680002 593436
-1.3314773 -0.43293431 2.8590002 772
-1.3041 -0.42930001 2.835 772
-0.48963144 -0.18580288 1.2270001 1713455
-0.48729435 -0.18580288 1.2270001 1055525
-0.09991619 -0.19140573 1.2640001 12369881
-1.9719087 -0.53469712 3.5760002 264469
-1.9650972 -0.53469712 3.5760002 330262
-1.9582859 -0.53469712 3.5760002 461584
-1.9722115 -0.54037905 3.6140001 329998
-1.9653276 -0.54037905 3.6140001 329998
-1.9584438 -0.54037905 3.6140001 593170
-1.97262 -0.54621047 3.6530001 593170
-1.3314773 -0.4274886 2.8590002 772
-0.48803523 -0.18286762 1.223 1909544
-0.09991619 -0.1889981 1.2640001 12435420
-1.9855314 -0.52788574 3.5760002 65795
-1.9787199 -0.52788574 3.5760002 263174
-1.3426543 -0.42558572 2.8830001 131588
-0.48803523 -0.1805381 1.223 922401
-0.09991619 -0.18659049 1.2640001 12435422
-1.3426543 -0.42009431 2.8830001 131588
-0.48803523 -0.17820857 1.223 527137
-0.09991619 -0.18418287 1.2640001 12501215
-1.3426543 -0.41460285 2.8830001 772
-1.337163 -0.41460285 2.8830001 772
-0.48963144 -0.17645431 1.2270001 396055
-0.09991619 -0.18177524 1.2640001 12567008
-1.7357953 -0.50220096 3.5390003 329998
-1.3487582 -0.41265908 2.9080002 131588
-0.49162674 -0.17482668 1.2320001 396055
-0.09991619 -0.17936763 1.2640001 12369879
-1.3603534 -0.41062 2.9330001 772
-0.49162674 -0.17248002 1.2320001 396055
-0.09991619 -0.17696001 1.2640001 12040923
-1.3487582 -0.40158099 2.9080002 66563
-0.49322289 -0.17068571 1.2360001 330262
-0.09991619 -0.1745524 1.2640001 12238305
-1.3487582 -0.39604193 2.9080002 772
-0.49322289 -0.16833144 1.2360001 461584
-0.09991619 -0.17214477 1.2640001 12369629
-1.3487582 -0.3905029 2.9080002 772
-0.4952181 -0.16664857 1.2410001 659981
-0.10232381 -0.16973716 1.2640001 12958645
-1.3487582 -0.38496384 2.9080002 66311
-0.4952181 -0.16428477 1.2410001 659477
-0.4928543 -0.16428477 1.2410001 133133
-0.4904905 -0.16428477 1.2410001 591367
-0.10264762 -0.16785905 1.268 13156020
-1.8424915 -0.46658286 3.5760002 659229
-1.8356801 -0.46658286 3.5760002 659229
-1.3369229 -0.37303144 2.8590002 770
-0.4904905 -0.16192096 1.2410001 459529
-0.10264762 -0.16544381 1.268 13550778
-1.8356801 -0.45977145 3.5760002 725022
-1.8288686 -0.45977145 3.5760002 659229
-1.3369229 -0.36758575 2.8590002 770
-0.4904905 -0.15955715 1.2410001 328715
-1.8288686 -0.45296001 3.5760002 659229
-1.8220572 -0.45296001 3.5760002 659477
-1.3423686 -0.36214003 2.8590002 268
-1.3369229 -0.36214003 2.8590002 513
-0.4904905 -0.15719333 1.2410001 526094
-0.4881267 -0.15719333 1.2410001 3092021
-0.10305239 -0.16124667 1.273 13418942
-1.3423686 -0.35669431 2.8590002 521
-0.48969999 -0.15532857 1.245 2828858
-0.10345715 -0.15944573 1.2780001 13222076
-1.3311 -0.34829998 2.835 524
-0.49207142 -0.15295714 1.245 985893
-0.48969999 -0.15295714 1.245 2696511
-0.10345715 -0.15701143 1.2780001 13156029
-0.10102287 -0.15701143 1.2780001 12435672
-1.7594144 -0.4070048 3.3650002 725022
-1.7530049 -0.4070048 3.3650002 725022
-1.3311 -0.34290001 2.835 524
-0.49207142 -0.15058571 1.245 789275
-0.1014181 -0.15518191 1.2830001 12567258
-1.778643 -0.40059528 3.3650002 593170
-1.7722334 -0.40059528 3.3650002 593170
