# .PCD v0.7 - Point Cloud Data file format
VERSION 0.7
FIELDS x y z rgba
SIZE 4 4 4 4
TYPE F F F U
COUNT 1 1 1 1
WIDTH 1271
HEIGHT 1
VIEWPOINT 0 0 0 1 0 0 0
POINTS 1271
DATA ascii
-0.072745718 -0.11178 1.863 4337665
-0.069197141 -0.11178 1.863 4402432
-0.066000953 -0.11238001 1.8730001 4534016
-0.062100001 -0.11178 1.863 4665856
-0.058551427 -0.11178 1.863 4534272
-0.055002857 -0.11178 1.863 4468224
-0.051454287 -0.11178 1.863 4731392
-0.047905717 -0.11178 1.863 4797955
-0.044357143 -0.11178 1.863 4666369
-0.04102762 -0.11238001 1.8730001 4730372
-0.037460003 -0.11238001 1.8730001 4861958
-0.033892382 -0.11238001 1.8730001 5125893
-0.030324765 -0.11238001 1.8730001 5257479
-0.026757143 -0.11238001 1.8730001 5192461
-0.023313334 -0.11298 1.8830001 5389840
-0.019726668 -0.11298 1.8830001 5653266
-0.016140001 -0.11298 1.8830001 6113817
-0.012486667 -0.11238001 1.8730001 6245421
-0.0089190481 -0.11238001 1.8730001 6377007
-0.00538 -0.11298 1.8830001 6639405
0.026757143 -0.11238001 1.8730001 10849910
0.03706 -0.11118001 1.853 8678766
0.043404762 -0.10938001 1.8230001 8220463
0.046620004 -0.10878 1.8130001 12957559
0.27454001 -0.10878 1.8130001 12695478
0.27799332 -0.10878 1.8130001 12563376
0.28299907 -0.10938001 1.8230001 12563376
0.28647143 -0.10938001 1.8230001 12300463
0.28994381 -0.10938001 1.8230001 11971498
0.2934162 -0.10938001 1.8230001 11314345
0.29688856 -0.10938001 1.8230001 9537934
0.30036095 -0.10938001 1.8230001 9339506
0.30383337 -0.10938001 1.8230001 8484197
0.30730572 -0.10938001 1.8230001 7827032
0.31248286 -0.10998 1.8330001 7234895
0.3159743 -0.10998 1.8330001 6445858
0.31946573 -0.10998 1.8330001 6116893
nan nan nan 5986858
nan nan nan 6184237
nan nan nan 6247981
nan nan nan 6116395
nan nan nan 5131836
nan nan nan 3421218
nan nan nan 1648896
0.37999526 -0.12030001 2.0050001 530432
nan nan nan 0
nan nan nan 8414791
0.45460665 -0.11058 1.8430001 6773599
0.45563143 -0.10998 1.8330001 6444886
0.45912287 -0.10998 1.8330001 6247507
0.4626143 -0.10998 1.8330001 5919573
0.46610573 -0.10998 1.8330001 5393229
0.46959716 -0.10998 1.8330001 5063744
0.47308856 -0.10998 1.8330001 4800572
0.47658002 -0.10998 1.8330001 4602680
0.48269048 -0.11058 1.8430001 4339508
0.48620096 -0.11058 1.8430001 4076838
0.48971143 -0.11058 1.8430001 4011045
0.4958981 -0.11118001 1.853 4010536
0.50212288 -0.11178 1.863 3944743
0.50567144 -0.11178 1.863 3944743
0.50922 -0.11178 1.863 3813157
0.687801 -0.12858 2.1430001 10266563
0.69188291 -0.12858 2.1430001 11516630
nan nan nan 5920637
-0.49101427 -0.073955238 1.273 4997692
-0.10788 -0.07564 1.302 9137270
0.026471429 -0.10765048 1.853 9796977
0.029839048 -0.10706953 1.8430001 10389860
0.036860004 -0.10706953 1.8430001 8548999
0.046620004 -0.10532667 1.8130001 11836085
0.38381431 -0.11648096 2.0050001 12432826
0.38531336 -0.11578381 1.9930001 11906482
0.38910955 -0.11578381 1.9930001 11775132
0.39527145 -0.11648096 2.0050001 11775132
0.3990905 -0.11648096 2.0050001 11445665
0.36432669 -0.10532667 1.8130001 11050907
0.36778 -0.10532667 1.8130001 10590361
0.37123334 -0.10532667 1.8130001 10064017
0.37675333 -0.10590762 1.8230001 9669263
0.38022575 -0.10590762 1.8230001 9274505
0.38369811 -0.10590762 1.8230001 9011331
nan nan nan 8879745
nan nan nan 8288637
nan nan nan 7959672
nan nan nan 7894390
nan nan nan 7039081
nan nan nan 6645584
nan nan nan 4671794
0.42189428 -0.10590762 1.8230001 7233831
0.42770001 -0.10648857 1.8330001 9666933
0.50726384 -0.10706953 1.8430001 8221547
0.51077425 -0.10706953 1.8430001 8089961
0.51428479 -0.10706953 1.8430001 8155504
0.51779521 -0.10706953 1.8430001 8155504
0.52130574 -0.10706953 1.8430001 8023405
0.52481622 -0.10706953 1.8430001 7826026
0.52832669 -0.10706953 1.8430001 7760487
0.53183717 -0.10706953 1.8430001 7760487
0.53534758 -0.10706953 1.8430001 7892069
0.53885812 -0.10706953 1.8430001 8089448
0.54236859 -0.10706953 1.8430001 8089448
0.54587907 -0.10706953 1.8430001 8155241
0.57001811 -0.10765048 1.853 8880522
0.57783145 -0.10648857 1.8330001 9669786
0.58132291 -0.10648857 1.8330001 9538981
0.69188291 -0.1244981 2.1430001 10988955
0.69596481 -0.1244981 2.1430001 11122139
nan nan nan 4276841
-0.49101427 -0.071530476 1.273 5324604
-0.10788 -0.07316 1.302 8876663
-0.10044 -0.07316 1.302 10786463
0.036460001 -0.10243525 1.8230001 9404288
0.046131428 -0.10080571 1.794 12165474
nan nan nan 7764369
0.41147715 -0.10243525 1.8230001 5200234
0.42536667 -0.10243525 1.8230001 7100937
0.43119144 -0.10299715 1.8330001 11311689
0.54342759 -0.10243525 1.8230001 8878966
0.5499 -0.10299715 1.8330001 9010552
0.55339146 -0.10299715 1.8330001 9011070
0.55688292 -0.10299715 1.8330001 9142656
0.56343144 -0.10355905 1.8430001 9339528
0.56386572 -0.10299715 1.8330001 9536907
0.56735718 -0.10299715 1.8330001 9799564
0.57084858 -0.10299715 1.8330001 9799564
0.57433999 -0.10299715 1.8330001 10062997
0.57783145 -0.10299715 1.8330001 10062997
0.59204096 -0.10243525 1.8230001 10397120
0.59551334 -0.10243525 1.8230001 11186636
0.70840007 -0.12114667 2.1560001 11582447
nan nan nan 5659023
-0.49101427 -0.069105707 1.273 4865600
-0.10788 -0.07068 1.302 9006702
-0.10044 -0.07068 1.302 10917261
0.036260001 -0.098420002 1.8130001 8813945
0.045900002 -0.096900001 1.7850001 10719586
0.40922001 -0.098420002 1.8130001 9604470
0.41267332 -0.098420002 1.8130001 7762266
0.41612667 -0.098420002 1.8130001 6117466
0.4264867 -0.098420002 1.8130001 5459998
0.42994002 -0.098420002 1.8130001 9470793
0.59898573 -0.098962858 1.8230001 10660801
0.60245812 -0.098962858 1.8230001 11779282
nan nan nan 4672128
-0.49101427 -0.066680953 1.273 4209219
-0.10788 -0.0682 1.302 8679027
-0.10044 -0.0682 1.302 10851743
0.036080003 -0.094495244 1.8040001 8812664
0.045668576 -0.093028575 1.7760001 10718541
0.41406098 -0.094495244 1.8040001 7366267
0.41749719 -0.094495244 1.8040001 4405582
0.42330003 -0.093500003 1.7850001 6046976
0.42670003 -0.093500003 1.7850001 10849855
0.60245812 -0.095490485 1.8230001 11251132
0.6092543 -0.096014284 1.8330001 11319016
nan nan nan 3422311
-0.49101427 -0.064256191 1.273 4143433
-0.10788 -0.065720007 1.302 8940659
-0.10044 -0.065720007 1.302 11049115
0.035879999 -0.090554282 1.794 9009537
0.045668576 -0.089645721 1.7760001 9534066
0.41749719 -0.091059051 1.8040001 6445413
0.42093337 -0.091059051 1.8040001 4209730
0.42670003 -0.090100005 1.7850001 4076581
0.43009999 -0.090100005 1.7850001 8746264
0.60593051 -0.092018098 1.8230001 10726076
0.73476005 -0.11094668 2.1980002 11712971
nan nan nan 1514562
-0.49101427 -0.061831426 1.273 3814974
-0.10829429 -0.063482858 1.307 8744818
-0.10044 -0.063239999 1.302 11246242
0.03890286 -0.086262859 1.7760001 5984344
0.048526671 -0.085340001 1.7570001 11177092
0.42093337 -0.087622859 1.8040001 6445413
0.42436957 -0.087622859 1.8040001 3484728
0.43009999 -0.0867 1.7850001 5121280
0.43350002 -0.0867 1.7850001 10713676
0.43690002 -0.0867 1.7850001 12297881
0.60606003 -0.088060006 1.8130001 11119294
0.74365336 -0.10744 2.2120001 10990303
0.74786675 -0.10744 2.2120001 11121889
nan nan nan 8029868
-0.49101427 -0.059406664 1.273 3617082
-0.10829429 -0.060993332 1.307 8744046
-0.10082572 -0.060993332 1.307 11312537
0.03890286 -0.082880005 1.7760001 8154482
0.048278097 -0.08157333 1.748 9007751
0.42201716 -0.083719999 1.794 5853028
0.42330003 -0.083300002 1.7850001 3484969
0.43469718 -0.082880005 1.7760001 8351488
0.43561333 -0.082413338 1.766 12496435
0.74786675 -0.10322668 2.2120001 11121084
0.74255997 -0.10192 2.184 11055871
nan nan nan 6977439
-0.49294287 -0.057205718 1.2780001 3223607
-0.10829429 -0.05850381 1.307 8612973
-0.10082572 -0.05850381 1.307 11378339
0.038486671 -0.078646667 1.7570001 9075323
0.048278097 -0.078243807 1.748 8679226
0.40197524 -0.07904952 1.766 9274251
0.42330003 -0.079900004 1.7850001 5590608
0.42670003 -0.079900004 1.7850001 3551025
0.43117332 -0.078243807 1.748 9925450
0.43450284 -0.078243807 1.748 12099984
0.7378 -0.097133338 2.1700001 10923735
0.74193335 -0.097133338 2.1700001 11055321
nan nan nan 5860777
nan nan nan 2373
nan nan nan 64
nan nan nan 723531
nan nan nan 330292
nan nan nan 1516363
nan nan nan 1318984
nan nan nan 1254194
nan nan nan 1319987
nan nan nan 1055312
-0.49294287 -0.054771435 1.2780001 3026228
-0.10870858 -0.056228571 1.312 8547180
-0.10082572 -0.056014288 1.307 11575709
0.038289525 -0.074914292 1.748 9075575
0.041619048 -0.074914292 1.748 6379386
0.05134191 -0.074528575 1.7390001 12887494
0.40327334 -0.075300001 1.7570001 9800590
0.42215812 -0.075685717 1.766 5458518
0.42793146 -0.076114289 1.7760001 3552302
0.43226573 -0.074528575 1.7390001 8219904
0.43783239 -0.074914292 1.748 12562228
0.74193335 -0.093000002 2.1700001 11120050
0.74606669 -0.093000002 2.1700001 10858465
nan nan nan 4145763
nan nan nan 4211554
nan nan nan 4540519
-0.49680001 -0.052746668 1.2880001 2367794
-0.10870858 -0.053729523 1.312 8219244
-0.10121143 -0.053729523 1.312 11444904
0.041404765 -0.071216188 1.7390001 7893877
0.05134191 -0.071216188 1.7390001 12494952
0.40120763 -0.071584761 1.748 10326169
0.40453714 -0.071584761 1.748 8944516
0.42552191 -0.072321907 1.766 5065291
0.42670003 -0.071953334 1.7570001 3223087
0.43557811 -0.071216188 1.7390001 9069651
0.43889049 -0.071216188 1.7390001 11903636
0.59788483 -0.071216188 1.7390001 10792389
0.75020003 -0.088866673 2.1700001 11121354
nan nan nan 5859491
-0.49242768 -0.050098099 1.2830001 4142899
-0.10912286 -0.051425714 1.317 9202032
-0.10159715 -0.051425714 1.317 12363685
0.041214287 -0.067591429 1.7310001 8617859
0.050840002 -0.067240007 1.7220001 11641467
0.42670003 -0.068606667 1.7570001 4867149
0.42784381 -0.068255238 1.748 3025958
0.43687144 -0.067591429 1.7310001 8746240
0.43559143 -0.066888571 1.7130001 13351748
0.59843147 -0.067591429 1.7310001 11054253
0.75433338 -0.084733337 2.1700001 10989780
0.75846666 -0.084733337 2.1700001 11384538
nan nan nan 4607346
nan nan nan 1977459
nan nan nan 2240631
nan nan nan 2373223
-0.49242768 -0.047654286 1.2830001 4010536
-0.10912286 -0.048917145 1.317 8744818
-0.099088572 -0.048917145 1.317 11509378
-0.12561999 -0.063625716 1.7130001 11969929
-0.12235714 -0.063625716 1.7130001 12297881
-0.11909429 -0.063625716 1.7130001 12561053
-0.11583143 -0.063625716 1.7130001 12824238
0.040785715 -0.063625716 1.7130001 9604767
0.050574284 -0.063625716 1.7130001 11706197
0.42784381 -0.064925715 1.748 4735822
0.42895335 -0.064591438 1.7390001 2893618
0.43355715 -0.063328572 1.705 12162914
0.43680477 -0.063328572 1.705 11643051
0.45629048 -0.063328572 1.705 12695746
0.4595381 -0.063328572 1.705 12564160
0.46495715 -0.063625716 1.7130001 12302262
0.75846666 -0.080600001 2.1700001 11053767
0.7626 -0.080600001 2.1700001 10596324
0.76673335 -0.080600001 2.1700001 10727910
nan nan nan 5989542
nan nan nan 5331855
nan nan nan 4213374
nan nan nan 4215929
nan nan nan 7239836
nan nan nan 3292256
nan nan nan 1125205
nan nan nan 4146267
nan nan nan 3428478
nan nan nan 1783653
nan nan nan 468056
-0.49242768 -0.045210481 1.2830001 3484190
-0.10912286 -0.046408571 1.317 9005675
-0.10159715 -0.046408571 1.317 7365216
-0.099088572 -0.046408571 1.317 65
-0.11204286 -0.060080953 1.705 4866622
-0.10879524 -0.060080953 1.705 4801312
-0.10554762 -0.060080953 1.705 4801312
-0.10278001 -0.060362857 1.7130001 5392682
-0.099517144 -0.060362857 1.7130001 5655854
-0.096254289 -0.060362857 1.7130001 6049372
-0.092991434 -0.060362857 1.7130001 7759990
-0.089728571 -0.060362857 1.7130001 7892556
-0.086465716 -0.060362857 1.7130001 8484693
-0.083202861 -0.060362857 1.7130001 8682068
-0.079566672 -0.060080953 1.705 8813654
-0.076319046 -0.060080953 1.705 9075538
-0.073071428 -0.060080953 1.705 9404503
-0.069823809 -0.060080953 1.705 9535349
-0.06657619 -0.060080953 1.705 10061693
-0.063328572 -0.060080953 1.705 10916720
-0.060080953 -0.060080953 1.705 11377271
-0.056833334 -0.060080953 1.705 11311492
-0.053585716 -0.060080953 1.705 11245699
-0.050338093 -0.060080953 1.705 11311240
-0.047090475 -0.060080953 1.705 11311240
-0.044048574 -0.060362857 1.7130001 11574911
-0.040785715 -0.060362857 1.7130001 11706497
-0.037347618 -0.060080953 1.705 11837073
-0.0341 -0.060080953 1.705 11771280
-0.030852381 -0.060080953 1.705 11837575
-0.027604762 -0.060080953 1.705 12034954
0.040595237 -0.060080953 1.705 11904681
0.050338093 -0.060080953 1.705 11706177
0.42698002 -0.060997147 1.7310001 4472157
0.44005239 -0.060080953 1.705 3283200
0.44096002 -0.059763812 1.6960001 3288064
0.4441905 -0.059763812 1.6960001 3748615
0.44742095 -0.059763812 1.6960001 3943024
0.46603334 -0.060080953 1.705 10066077
0.46928096 -0.060080953 1.705 11315097
0.47252858 -0.060080953 1.705 11644062
0.76673335 -0.076466665 2.1700001 11121606
0.77086669 -0.076466665 2.1700001 11122175
nan nan nan 2898552
nan nan nan 133735
nan nan nan 3554971
nan nan nan 2305083
nan nan nan 3226185
nan nan nan 3094109
nan nan nan 2436179
-0.49242768 -0.042766668 1.2830001 3484440
-0.10912286 -0.043900002 1.317 8678253
-0.10159715 -0.043900002 1.317 6315115
-0.024357144 -0.056833334 1.705 9731930
-0.021109525 -0.056833334 1.705 9731930
-0.017861906 -0.056833334 1.705 9994848
-0.014614286 -0.056833334 1.705 10126434
-0.011366667 -0.056833334 1.705 10520945
-0.0081190476 -0.056833334 1.705 10849910
-0.0048714289 -0.056833334 1.705 10982016
-0.0016314286 -0.057100002 1.7130001 11245188
0.0016238096 -0.056833334 1.705 11507854
0.0048714289 -0.056833334 1.705 11902612
0.0081190476 -0.056833334 1.705 12034970
0.011366667 -0.056833334 1.705 12166556
0.014614286 -0.056833334 1.705 12363937
0.017861906 -0.056833334 1.705 12363937
0.021109525 -0.056833334 1.705 12363424
0.024357144 -0.056833334 1.705 12495010
0.027604762 -0.056833334 1.705 12626848
0.040595237 -0.056833334 1.705 12690615
0.050072383 -0.056533337 1.6960001 12226862
0.40622574 -0.057100002 1.7130001 9733782
0.40948859 -0.057100002 1.7130001 8746887
0.42476004 -0.057400003 1.7220001 5587801
0.42804 -0.057400003 1.7220001 4734786
0.4453105 -0.056266669 1.6880001 393743
0.4757762 -0.056833334 1.705 9866111
0.47902381 -0.056833334 1.705 10589834
0.48453429 -0.057100002 1.7130001 11510684
0.48779714 -0.057100002 1.7130001 12037028
0.49106002 -0.057100002 1.7130001 12169654
0.49692005 -0.057400003 1.7220001 12103861
0.50020003 -0.057400003 1.7220001 12104115
0.50348002 -0.057400003 1.7220001 12169908
0.50676 -0.057400003 1.7220001 11972795
0.50737435 -0.057100002 1.7130001 11972795
0.77086669 -0.072333336 2.1700001 10596315
nan nan nan 2832768
-0.49434668 -0.040480006 1.2880001 3353108
-0.10912286 -0.041391429 1.317 8678253
-0.10159715 -0.041391429 1.317 9603459
-0.099088572 -0.041391429 1.317 6578789
-0.12378668 -0.053051431 1.6880001 7170926
-0.12 -0.052800003 1.6800001 7762279
-0.1168 -0.052800003 1.6800001 7696486
-0.11414096 -0.053051431 1.6880001 7565150
-0.11092572 -0.053051431 1.6880001 7499357
-0.10771048 -0.053051431 1.6880001 7301728
-0.10449524 -0.053051431 1.6880001 7104349
-0.1008 -0.052800003 1.6800001 7300445
-0.097600006 -0.052800003 1.6800001 7366238
-0.094400004 -0.052800003 1.6800001 7037273
-0.091200002 -0.052800003 1.6800001 6905687
-0.088 -0.052800003 1.6800001 6970460
-0.084345713 -0.052517146 1.6710001 7036253
0.030689526 -0.053302858 1.6960001 9732233
0.033920001 -0.053302858 1.6960001 9470821
0.03715048 -0.053302858 1.6960001 9733993
0.040380955 -0.053302858 1.6960001 9069701
0.050072383 -0.053302858 1.6960001 10583342
0.4075762 -0.053585716 1.705 10327202
0.41082382 -0.053585716 1.705 9274780
0.42580286 -0.053837147 1.7130001 5457538
0.42906573 -0.053837147 1.7130001 4996987
0.44320002 -0.052800003 1.6800001 6507650
0.44640002 -0.052800003 1.6800001 14271224
0.44960001 -0.052800003 1.6800001 14010820
0.45280004 -0.052800003 1.6800001 13287097
0.456 -0.052800003 1.6800001 12433582
0.45920002 -0.052800003 1.6800001 10328206
0.50825244 -0.053585716 1.705 8684192
0.50880003 -0.053302858 1.6960001 9342122
0.51203048 -0.053302858 1.6960001 9670560
0.51526099 -0.053302858 1.6960001 10328490
0.51849145 -0.053302858 1.6960001 10789023
0.52449048 -0.053585716 1.705 10854816
0.52773809 -0.053585716 1.705 11051175
0.53098571 -0.053585716 1.705 11116968
0.53423333 -0.053585716 1.705 11314095
0.53748101 -0.053585716 1.705 11511474
0.54072857 -0.053585716 1.705 11446447
0.54397619 -0.053585716 1.705 11512240
nan nan nan 4148891
-0.49434668 -0.038026668 1.2880001 3089936
-0.10912286 -0.038882855 1.317 8613484
-0.080774285 -0.049098097 1.6630001 11048075
-0.077606671 -0.049098097 1.6630001 11179661
-0.074797146 -0.049334288 1.6710001 11376783
-0.071614295 -0.049334288 1.6710001 11245197
-0.06843143 -0.049334288 1.6710001 10587263
-0.0656 -0.049600001 1.6800001 10455677
-0.062400002 -0.049600001 1.6800001 10389877
-0.059200004 -0.049600001 1.6800001 9995119
-0.056000002 -0.049600001 1.6800001 10060392
-0.052800003 -0.049600001 1.6800001 10126185
-0.049600001 -0.049600001 1.6800001 10718324
-0.046399999 -0.049600001 1.6800001 10389359
-0.043200001 -0.049600001 1.6800001 10060651
-0.039999999 -0.049600001 1.6800001 9797479
-0.036800001 -0.049600001 1.6800001 9994596
-0.033600003 -0.049600001 1.6800001 10126182
-0.030400002 -0.049600001 1.6800001 10455152
-0.027329525 -0.049836192 1.6880001 10323566
-0.024114287 -0.049836192 1.6880001 10258533
-0.020899048 -0.049836192 1.6880001 10324326
-0.01768381 -0.049836192 1.6880001 10653552
-0.014468572 -0.049836192 1.6880001 9929829
-0.011253334 -0.049836192 1.6880001 9928539
0.049836192 -0.049836192 1.6880001 9272615
0.056266669 -0.049836192 1.6880001 14074283
0.42157719 -0.050072383 1.6960001 8680065
0.42706192 -0.050338093 1.705 7298412
0.43030953 -0.050338093 1.705 7101794
0.4312686 -0.050072383 1.6960001 4930625
0.43244955 -0.049836192 1.6880001 5258302
0.43566477 -0.049836192 1.6880001 4929337
0.43888003 -0.049836192 1.6880001 1846317
0.44209525 -0.049836192 1.6880001 2828
0.44320002 -0.049600001 1.6800001 9068136
0.45674002 -0.049334288 1.6710001 13353417
0.45992288 -0.049334288 1.6710001 11973826
0.46310577 -0.049334288 1.6710001 10263208
0.4662886 -0.049334288 1.6710001 9079427
0.46947145 -0.049334288 1.6710001 8882048
0.54433531 -0.050072383 1.6960001 10392466
0.54756576 -0.050072383 1.6960001 10655638
0.55079627 -0.050072383 1.6960001 10788255
0.55402666 -0.050072383 1.6960001 10722462
0.55725718 -0.050072383 1.6960001 10656665
0.56048763 -0.050072383 1.6960001 10854044
0.56670958 -0.050338093 1.705 10985634
0.56995714 -0.050338093 1.705 11051427
0.57320476 -0.050338093 1.705 11248554
0.57645237 -0.050338093 1.705 11314347
0.57664001 -0.050072383 1.6960001 11249068
0.57987046 -0.050072383 1.6960001 11183275
0.58310097 -0.050072383 1.6960001 11117482
0.58633143 -0.050072383 1.6960001 11051689
0.58956194 -0.050072383 1.6960001 11183013
0.59279239 -0.050072383 1.6960001 11314599
0.5960229 -0.050072383 1.6960001 11249322
0.59925342 -0.050072383 1.6960001 11315115
0.60248381 -0.050072383 1.6960001 10987438
0.60571432 -0.050072383 1.6960001 11447989
0.60894477 -0.050072383 1.6960001 10989787
0.78326672 -0.064066671 2.1700001 11055580
nan nan nan 5860797
nan nan nan 1458084
-0.49242768 -0.035435241 1.2830001 2695948
-0.10912286 -0.036374286 1.317 8612971
-0.0080000004 -0.046399999 1.6800001 12627611
-0.0047999998 -0.046399999 1.6800001 12627611
-0.0016000001 -0.046399999 1.6800001 12890783
0.0016000001 -0.046399999 1.6800001 12693656
0.0047999998 -0.046399999 1.6800001 12693656
0.0080000004 -0.046399999 1.6800001 12693404
0.011253334 -0.046620954 1.6880001 12693404
0.014468572 -0.046620954 1.6880001 12561566
0.017600002 -0.046399999 1.6800001 12364187
0.0208 -0.046399999 1.6800001 12035731
0.024 -0.046399999 1.6800001 11904145
0.027329525 -0.046620954 1.6880001 11576468
0.030544763 -0.046620954 1.6880001 11444882
0.03376 -0.046620954 1.6880001 11247253
0.036975238 -0.046620954 1.6880001 11115667
0.039999999 -0.046399999 1.6800001 10981278
0.043200001 -0.046399999 1.6800001 10389141
0.046620954 -0.046620954 1.6880001 10258032
0.049836192 -0.046620954 1.6880001 11113341
0.058882859 -0.046151433 1.6710001 11376011
0.062065721 -0.046151433 1.6710001 11310218
0.44640002 -0.046399999 1.6800001 10455679
0.44960001 -0.046399999 1.6800001 12759160
0.47039145 -0.045930479 1.6630001 12894147
0.47128099 -0.045709524 1.6550001 13157319
0.47443336 -0.045709524 1.6550001 13288401
0.47758573 -0.045709524 1.6550001 13156815
0.48306194 -0.045930479 1.6630001 13025215
0.48622957 -0.045930479 1.6630001 12959422
0.48939714 -0.045930479 1.6630001 12631484
0.49493432 -0.046151433 1.6710001 10986659
0.49811715 -0.046151433 1.6710001 9276838
0.50130004 -0.046151433 1.6710001 8224150
0.60928762 -0.046620954 1.6880001 7902367
0.61250287 -0.046620954 1.6880001 9544431
nan nan nan 5466326
nan nan nan 1979297
nan nan nan 3950147
nan nan nan 4871249
nan nan nan 5461374
nan nan nan 5856132
nan nan nan 5725834
nan nan nan 5791627
nan nan nan 5858449
nan nan nan 5924242
nan nan nan 6055303
-0.48998383 -0.032991432 1.2830001 5590077
-0.10912286 -0.033865716 1.317 8481898
0.058882859 -0.042968575 1.6710001 8677432
0.065248571 -0.042968575 1.6710001 10782824
0.44719145 -0.042968575 1.6710001 8486456
0.45037431 -0.042968575 1.6710001 10855004
0.49965239 -0.042557143 1.6550001 11249581
0.50280476 -0.042557143 1.6550001 11183788
0.50595713 -0.042557143 1.6550001 11117482
0.5091095 -0.042557143 1.6550001 10985896
0.51226193 -0.042557143 1.6550001 10788517
0.51541436 -0.042557143 1.6550001 10656931
0.52640003 -0.043200001 1.6800001 10328472
0.52960002 -0.043200001 1.6800001 10657437
0.53280002 -0.043200001 1.6800001 10789028
0.53600001 -0.043200001 1.6800001 10525856
0.54176766 -0.043405719 1.6880001 10459804
0.54498291 -0.043405719 1.6880001 10394011
0.5481981 -0.043405719 1.6880001 10458775
0.55141336 -0.043405719 1.6880001 9866638
0.60960001 -0.043200001 1.6800001 9346507
0.6128 -0.043200001 1.6800001 10728160
0.61600006 -0.043200001 1.6800001 10793451
nan nan nan 5004462
nan nan nan 1850511
nan nan nan 5737
nan nan nan 2041439
nan nan nan 1716570
nan nan nan 2900844
-0.48998383 -0.030547623 1.2830001 5655870
-0.10912286 -0.031357143 1.317 8153437
0.055700004 -0.039785717 1.6710001 9602185
0.064936198 -0.039595243 1.6630001 7691628
0.067776188 -0.039404765 1.6550001 9139074
0.43127716 -0.039785717 1.6710001 9143430
0.44400862 -0.039785717 1.6710001 3814156
0.44821811 -0.039595243 1.6630001 8351819
0.45138574 -0.039595243 1.6630001 10916991
0.54904288 -0.039785717 1.6710001 11643828
0.55222577 -0.039785717 1.6710001 11643828
0.5554086 -0.039785717 1.6710001 11578037
0.56160003 -0.039999999 1.6800001 11512244
0.56480002 -0.039999999 1.6800001 11446449
0.56800002 -0.039999999 1.6800001 11380656
0.57120001 -0.039999999 1.6800001 11446197
0.57440001 -0.039999999 1.6800001 11511990
0.57760006 -0.039999999 1.6800001 11446962
0.5808 -0.039999999 1.6800001 11512755
0.58399999 -0.039999999 1.6800001 11578303
0.58719999 -0.039999999 1.6800001 11709889
0.59040004 -0.039999999 1.6800001 11513014
0.59042001 -0.039785717 1.6710001 11381428
0.5936029 -0.039785717 1.6710001 10922167
0.59678578 -0.039785717 1.6710001 10790581
0.59996861 -0.039785717 1.6710001 10529206
0.60315144 -0.039785717 1.6710001 10463413
0.61588293 -0.039785717 1.6710001 10595003
0.61906576 -0.039785717 1.6710001 10529754
0.80806667 -0.051666666 2.1700001 11056098
nan nan nan 5202604
nan nan nan 5201550
-0.49189335 -0.028213335 1.2880001 5588796
-0.10912286 -0.028848572 1.317 8020836
0.058319051 -0.036252383 1.6550001 7435361
0.067448579 -0.036077142 1.6470001 9208595
0.43127716 -0.036602858 1.6710001 10459304
0.43446004 -0.036602858 1.6710001 9144196
0.43764287 -0.036602858 1.6710001 7828336
0.44082573 -0.036602858 1.6710001 6841427
0.44921431 -0.036252383 1.6550001 8612864
0.45018002 -0.036077142 1.6470001 12165682
0.62224859 -0.036602858 1.6710001 11055052
0.62543148 -0.036602858 1.6710001 10858978
nan nan nan 6585013
-0.49189335 -0.025760002 1.2880001 5259581
-0.10912286 -0.02634 1.317 8151659
0.057755239 -0.032780003 1.6390001 10392698
0.067120954 -0.032780003 1.6390001 10449035
0.072693333 -0.032480001 1.6240001 12361840
0.43871525 -0.033260003 1.6630001 8223092
0.44188288 -0.033260003 1.6630001 5986130
0.45018002 -0.03294 1.6470001 7624772
0.45111525 -0.032780003 1.6390001 10522475
0.61944288 -0.033100002 1.6550001 10726326
0.62259525 -0.033100002 1.6550001 11252670
0.8204667 -0.043400001 2.1700001 11056125
nan nan nan 6255040
nan nan nan 4873387
nan nan nan 1785193
nan nan nan 336227
nan nan nan 5720
nan nan nan 134474
nan nan nan 2631
nan nan nan 69174
nan nan nan 134967
nan nan nan 269609
-0.49189335 -0.023306668 1.2880001 4799809
-0.10953714 -0.023921905 1.322 8020586
0.057508573 -0.029531429 1.6320001 11770526
0.066506669 -0.029386668 1.6240001 10839125
0.072335243 -0.029241905 1.6160001 10387047
0.075086668 -0.029115239 1.6090001 11968139
0.43763146 -0.029802859 1.6470001 7563887
0.44076857 -0.029802859 1.6470001 5986132
0.44918862 -0.029531429 1.6320001 7887616
0.45229715 -0.029531429 1.6320001 12164149
0.8204667 -0.039266668 2.1700001 11055578
0.82459998 -0.039266668 2.1700001 11055578
nan nan nan 5664449
nan nan nan 5070243
-0.49189335 -0.020853335 1.2880001 4536637
-0.10953714 -0.02140381 1.322 8217452
0.057226669 -0.026293335 1.6240001 12100522
0.066179045 -0.026163809 1.6160001 9987930
0.074713334 -0.025920954 1.6010001 10518905
0.44076857 -0.026665714 1.6470001 7367803
0.44174951 -0.026536191 1.6390001 5328220
0.45229715 -0.026422858 1.6320001 6179375
0.45317337 -0.026293335 1.6240001 9864023
0.82459998 -0.035133332 2.1700001 11186609
0.82873338 -0.035133332 2.1700001 10792674
nan nan nan 6190262
nan nan nan 3755921
-0.49189335 -0.0184 1.2880001 4404801
-0.10953714 -0.018885715 1.322 8349549
0.060022857 -0.023085715 1.6160001 4535606
0.065892383 -0.022985715 1.6090001 9262154
0.074386671 -0.022771429 1.5940001 9662791
0.077422865 -0.022771429 1.5940001 13610371
0.44174951 -0.023414286 1.6390001 6775146
0.44297144 -0.023314286 1.6320001 5328722
0.45094097 -0.023085715 1.6160001 6769152
0.45401907 -0.023085715 1.6160001 11900994
0.83407998 -0.031200001 2.184 10660043
0.83823997 -0.031200001 2.184 10791629
0.84240001 -0.031200001 2.184 10530020
nan nan nan 5071781
nan nan nan 2969503
nan nan nan 2311573
nan nan nan 2965621
nan nan nan 1715554
nan nan nan 1648735
-0.49342099 -0.015996192 1.2920001 4011840
-0.10953714 -0.01636762 1.322 8679027
0.059465718 -0.019821906 1.6010001 7826019
0.067971431 -0.019636191 1.5860001 8220481
0.076694295 -0.019549526 1.5790001 10518866
0.079701908 -0.019549526 1.5790001 10848360
0.083076194 -0.019636191 1.5860001 12427392
0.44080001 -0.020106668 1.6240001 6775668
0.44389334 -0.020106668 1.6240001 5065050
0.45205241 -0.019920954 1.6090001 6442038
0.45511717 -0.019920954 1.6090001 10062399
0.84240001 -0.027039999 2.184 10660542
0.84113336 -0.026866667 2.1700001 10989507
0.8452667 -0.026866667 2.1700001 10858746
nan nan nan 7306900
nan nan nan 7173786
nan nan nan 4871031
nan nan nan 2111607
-0.49342099 -0.013535239 1.2920001 3946047
-0.11003429 -0.013912382 1.3280001 8942197
0.059205718 -0.016699048 1.5940001 9866374
0.082709529 -0.016541906 1.5790001 11899731
0.44170669 -0.016929524 1.6160001 6512496
0.44285813 -0.016856192 1.6090001 5327952
0.45285428 -0.01677238 1.6010001 6440448
0.4539105 -0.016699048 1.5940001 11111739
0.8452667 -0.022733334 2.1700001 10529754
0.85488003 -0.022879999 2.184 10529754
-0.49533051 -0.011117143 1.2970001 3485503
-0.11003429 -0.011382857 1.3280001 8810093
0.061656196 -0.013534287 1.5790001 8550017
0.070679054 -0.013534287 1.5790001 10254734
0.082342856 -0.013474287 1.572 11769714
0.44065621 -0.013722857 1.6010001 6709623
0.44370574 -0.013722857 1.6010001 5525349
0.45163238 -0.013594287 1.5860001 4407350
0.45465335 -0.013594287 1.5860001 9142569
0.85488003 -0.018719999 2.184 10660796
0.85904002 -0.018719999 2.184 10463727
-0.49533051 -0.008646667 1.2970001 3222331
-0.11003429 -0.008853334 1.3280001 8481378
0.06138286 -0.01048 1.572 10652056
0.070365719 -0.01048 1.572 10646378
0.081923813 -0.010426668 1.5640001 12099197
0.44370574 -0.010673334 1.6010001 6840948
0.44480193 -0.010626667 1.5940001 5394263
0.45264667 -0.010526667 1.5790001 5914368
0.45565432 -0.010526667 1.5790001 10848833
0.87005335 -0.014746668 2.2120001 10528723
0.86873341 -0.014653334 2.1980002 10594516
0.8729201 -0.014653334 2.1980002 10267368
nan nan nan 2964329
nan nan nan 2765140
nan nan nan 3291484
nan nan nan 3096666
nan nan nan 4346733
nan nan nan 4281974
nan nan nan 4545146
nan nan nan 5201018
nan nan nan 5201018
nan nan nan 5267317
nan nan nan 5793661
-0.49533051 -0.0061761905 1.2970001 3024193
-0.11003429 -0.0063238097 1.3280001 8481378
0.061070483 -0.0074476195 1.5640001 12167317
0.070365719 -0.0074857143 1.572 9596518
0.081190482 -0.0073809526 1.5500001 12493193
0.088827625 -0.0072809528 1.529 10256471
0.44256955 -0.0075523811 1.5860001 6775423
0.4455905 -0.0075523811 1.5860001 5656942
0.45363429 -0.0074857143 1.572 4934225
0.45430481 -0.0074476195 1.5640001 8945226
0.87848002 -0.010533334 2.2120001 10397400
0.87710673 -0.010466667 2.1980002 10726365
nan nan nan 5858416
nan nan nan 1581871
nan nan nan 1322297
nan nan nan 1256504
nan nan nan 1255253
nan nan nan 2439527
nan nan nan 3098699
nan nan nan 3493457
nan nan nan 5660787
-0.49096 -0.0036914286 1.2920001 4862761
-0.11003429 -0.0037942859 1.3280001 8547171
0.060797144 -0.0044485712 1.557 12036780
0.070007622 -0.0044685719 1.5640001 9198419
0.072659999 -0.0044485712 1.557 9469288
0.080823816 -0.0044085714 1.5430001 12031622
0.094652385 -0.0043685711 1.529 11307892
0.4455905 -0.0045314287 1.5860001 6906232
0.44663146 -0.004511429 1.5790001 5722980
0.45227143 -0.0044485712 1.557 5392128
0.45523715 -0.0044485712 1.557 10195005
0.45820287 -0.0044485712 1.557 11971469
nan nan nan 5594509
nan nan nan 5328999
-0.49096 -0.0012304762 1.2920001 4469527
-0.11003429 -0.0012647619 1.3280001 8481376
0.06347619 -0.0014761905 1.5500001 6839374
0.072333336 -0.0014761905 1.5500001 8483584
0.083002858 -0.0014561905 1.529 7493193
0.085915245 -0.0014561905 1.529 8216916
0.094280958 -0.0014504762 1.5230001 8019252
0.097181909 -0.0014504762 1.5230001 9335112
0.44663146 -0.0015038096 1.5790001 6842014
0.44764572 -0.0014971428 1.572 5526154
0.45202285 -0.0014628571 1.536 9801528
nan nan nan 3752536
-0.49096 0.0012304762 1.2920001 3945996
-0.11003429 0.0012647619 1.3280001 8481376
0.06347619 0.0014761905 1.5500001 8484460
0.072006665 0.0014695239 1.5430001 6116864
0.083002858 0.0014561905 1.529 4074496
0.088479057 0.0014504762 1.5230001 5851695
0.091380008 0.0014504762 1.5230001 5456937
0.10008286 0.0014504762 1.5230001 7035448
0.10298382 0.0014504762 1.5230001 9206617
0.10588477 0.0014504762 1.5230001 9206907
0.10878572 0.0014504762 1.5230001 9404286
0.11168668 0.0014504762 1.5230001 9798276
0.11458763 0.0014504762 1.5230001 9535104
0.11748858 0.0014504762 1.5230001 9337466
0.12038954 0.0014504762 1.5230001 9798017
0.12329049 0.0014504762 1.5230001 10258822
0.12619144 0.0014504762 1.5230001 10653580
0.1290924 0.0014504762 1.5230001 10785941
0.13199335 0.0014504762 1.5230001 10851734
0.1348943 0.0014504762 1.5230001 11048609
0.13779525 0.0014504762 1.5230001 11180195
0.14069621 0.0014504762 1.5230001 11114913
0.14416286 0.0014561905 1.529 11114913
0.14707524 0.0014561905 1.529 11181469
0.14939906 0.0014504762 1.5230001 10984090
0.1523 0.0014504762 1.5230001 10786954
0.15520096 0.0014504762 1.5230001 10918540
0.15810192 0.0014504762 1.5230001 11640466
0.16100286 0.0014504762 1.5230001 12166810
0.16390382 0.0014504762 1.5230001 12429471
0.44433334 0.0014761905 1.5500001 7957866
0.44526574 0.0014695239 1.5430001 7431522
0.44239527 0.0014504762 1.5230001 6775829
0.44324952 0.0014438096 1.516 6710036
nan nan nan 5660032
nan nan nan 2501968
-0.49096 0.0036914286 1.2920001 3880203
-0.11003429 0.0037942859 1.3280001 8546921
0.066128574 0.0044085714 1.5430001 5788297
0.074945718 0.0044085714 1.5430001 8748143
0.080457143 0.0043885713 1.536 6246460
0.16680478 0.0043514287 1.5230001 3147520
0.16970572 0.0043514287 1.5230001 3476506
0.17260668 0.0043514287 1.5230001 3739678
0.17550763 0.0043514287 1.5230001 5981954
0.17840858 0.0043514287 1.5230001 8087330
0.18047619 0.004331429 1.516 8612469
0.20068952 0.004331429 1.516 7032981
0.20357715 0.004331429 1.516 8088151
0.20646477 0.004331429 1.516 9338218
0.20935239 0.004331429 1.516 8812905
0.21224 0.004331429 1.516 8286561
0.21612097 0.0043514287 1.5230001 8087658
0.21988477 0.0043685711 1.529 7692900
0.22279716 0.0043685711 1.529 7956828
0.22570953 0.0043685711 1.529 8220000
0.22862191 0.0043685711 1.529 8548963
0.23259428 0.0043885713 1.536 8680549
0.23552001 0.0043885713 1.536 9207395
0.23844571 0.0043885713 1.536 10391669
0.24137142 0.0043885713 1.536 10391683
0.24429713 0.0043885713 1.536 10260097
0.24722287 0.0043885713 1.536 10260097
0.25014856 0.0043885713 1.536 10325890
0.25192094 0.0043685711 1.529 9930884
0.25483334 0.0043685711 1.529 9733505
0.25774571 0.0043685711 1.529 9602176
0.26065812 0.0043685711 1.529 9602176
0.26357046 0.0043685711 1.529 8417929
0.26648286 0.0043685711 1.529 8286343
0.26939526 0.0043685711 1.529 8551284
0.27230763 0.0043685711 1.529 8814456
0.27522001 0.0043685711 1.529 9931386
nan nan nan 4871806
nan nan nan 4080990
-0.49038953 0.0061761905 1.2970001 6051370
-0.11044858 0.0063476195 1.3330001 8678764
0.065828577 0.0073142857 1.536 8679293
0.074945718 0.0073476196 1.5430001 8220523
0.080457143 0.0073142857 1.536 6773077
0.083002858 0.0072809528 1.529 6048048
0.18336381 0.0072190473 1.516 6302994
0.18625143 0.0072190473 1.516 9070927
0.18913905 0.0072190473 1.516 10452580
0.19202667 0.0072190473 1.516 9995671
0.19491428 0.0072190473 1.516 9666706
0.1978019 0.0072190473 1.516 6381410
0.27704099 0.0072523816 1.5230001 5585951
0.28104478 0.0072809528 1.529 8084564
0.28395712 0.0072809528 1.529 8150357
0.28949618 0.0073476196 1.5430001 7168357
0.29243523 0.0073476196 1.5430001 7628908
0.29403427 0.0073142857 1.536 8418426
0.29696 0.0073142857 1.536 9207942
0.29988572 0.0073142857 1.536 9406089
0.30143145 0.0072809528 1.529 8813952
0.30434382 0.0072809528 1.529 8747630
0.30605051 0.0072523816 1.5230001 9537146
0.30895144 0.0072523816 1.5230001 10128018
0.31185243 0.0072523816 1.5230001 10325397
0.31475335 0.0072523816 1.5230001 10458009
0.31890571 0.0072809528 1.529 10458009
0.32181808 0.0072809528 1.529 10393236
0.32473049 0.0072809528 1.529 10393236
0.32764289 0.0072809528 1.529 10458516
0.33055523 0.0072809528 1.529 10326930
0.33346763 0.0072809528 1.529 10457998
0.33638 0.0072809528 1.529 10326412
0.33929241 0.0072809528 1.529 10260349
0.34220475 0.0072809528 1.529 10194556
0.34511715 0.0072809528 1.529 10196063
0.34802952 0.0072809528 1.529 10393442
0.35094193 0.0072809528 1.529 10655618
0.35385427 0.0072809528 1.529 10458239
0.35676667 0.0072809528 1.529 10524291
0.35967907 0.0072809528 1.529 10458498
0.36116859 0.0072523816 1.5230001 11247232
0.36239621 0.0072190473 1.516 11247232
0.36528382 0.0072190473 1.516 12102025
0.36817145 0.0072190473 1.516 12299404
nan nan nan 3160936
-0.49038953 0.008646667 1.2970001 6051120
-0.11044858 0.008886667 1.3330001 8744046
0.065828577 0.01024 1.536 10722925
0.074945718 0.010286667 1.5430001 7039592
0.082677148 0.010153335 1.5230001 8414849
0.08518476 0.010106667 1.516 7756919
0.088072382 0.010106667 1.516 6114395
0.090960003 0.010106667 1.516 5982809
0.093847618 0.010106667 1.516 5454157
0.36359715 0.01006 1.5090001 11511655
nan nan nan 5792373
nan nan nan 2107965
-0.49038953 0.011117143 1.2970001 5919534
-0.11086286 0.011468572 1.3380001 8678766
0.063300006 0.012660001 1.4770001 10724781
0.073974289 0.013054286 1.5230001 5910311
0.096288577 0.012934286 1.5090001 8085321
0.099162862 0.012934286 1.5090001 7297858
0.10203715 0.012934286 1.5090001 7034686
0.10491143 0.012934286 1.5090001 6968631
0.10828572 0.012994286 1.516 6508080
0.11117333 0.012994286 1.516 5850391
0.11406095 0.012994286 1.516 5718805
0.11694857 0.012994286 1.516 5718039
0.11983619 0.012994286 1.516 5454867
0.12272381 0.012994286 1.516 5257738
0.12619144 0.013054286 1.5230001 5060359
0.1290924 0.013054286 1.5230001 4862728
0.13138667 0.012994286 1.516 4994314
0.13427429 0.012994286 1.516 4862994
0.13652858 0.012934286 1.5090001 4270857
0.13940285 0.012934286 1.5090001 4006400
0.14293714 0.012994286 1.516 4203778
0.14582476 0.012994286 1.516 4270336
0.14871238 0.012994286 1.516 4138752
0.1516 0.012994286 1.516 3874816
0.15448762 0.012994286 1.516 3545856
0.15737525 0.012994286 1.516 3216141
0.2266781 0.012994286 1.516 3941888
0.22956572 0.012994286 1.516 4270848
0.23138 0.012934286 1.5090001 4666112
0.2342543 0.012934286 1.5090001 4797696
0.23712859 0.012934286 1.5090001 4732672
0.24000286 0.012934286 1.5090001 5061632
0.24287716 0.012934286 1.5090001 5456640
0.24689142 0.012994286 1.516 5719811
0.24977905 0.012994286 1.516 6048783
0.25266668 0.012994286 1.516 6706713
0.25555429 0.012994286 1.516 7429175
0.25963527 0.013054286 1.5230001 8481863
0.2625362 0.013054286 1.5230001 7826814
0.26421714 0.012994286 1.516 2563374
0.35084572 0.012994286 1.516 8482909
0.35373333 0.012994286 1.516 11046010
0.35662094 0.012994286 1.516 11440768
0.35784858 0.012934286 1.5090001 12166801
0.36072287 0.012934286 1.5090001 12232594
0.36359715 0.012934286 1.5090001 12169109
0.36647144 0.012934286 1.5090001 12366488
nan nan nan 5265544
nan nan nan 4606818
-0.49038953 0.013587619 1.2970001 5787449
-0.11086286 0.014017143 1.3380001 8612973
0.066113338 0.015473335 1.4770001 6708328
0.076521903 0.015881905 1.516 7160421
0.16026285 0.015881905 1.516 9732474
0.16315047 0.015881905 1.516 9601140
0.1660381 0.015881905 1.516 9535347
0.16892572 0.015881905 1.516 9601140
0.17181334 0.015881905 1.516 9666933
0.17470096 0.015881905 1.516 9798769
0.17676859 0.015808573 1.5090001 9996148
0.17892857 0.015745714 1.503 9798764
0.18179142 0.015745714 1.503 9667178
0.1846543 0.015745714 1.503 9798769
0.18751715 0.015745714 1.503 10061941
0.19038001 0.015745714 1.503 9930870
0.19324285 0.015745714 1.503 9799284
0.1961057 0.015745714 1.503 9864564
0.19896857 0.015745714 1.503 9930357
0.20183143 0.015745714 1.503 9996148
0.20469429 0.015745714 1.503 10127734
0.20755714 0.015745714 1.503 10325365
0.21126001 0.015808573 1.5090001 10588537
0.21413429 0.015808573 1.5090001 10325367
0.21700858 0.015808573 1.5090001 10062195
0.21988288 0.015808573 1.5090001 10325365
0.22275715 0.015808573 1.5090001 10654330
0.26195145 0.015745714 1.503 10919051
0.26587144 0.015808573 1.5090001 4805522
0.3048943 0.015745714 1.503 6379574
0.30775717 0.015745714 1.503 7103297
0.31062001 0.015745714 1.503 8881664
0.31348288 0.015745714 1.503 9736960
0.31634569 0.015745714 1.503 11775595
0.32048288 0.015808573 1.5090001 12499318
0.32335716 0.015808573 1.5090001 12498592
0.32493427 0.015745714 1.503 12564385
0.32779714 0.015745714 1.503 12629926
0.33065999 0.015745714 1.503 12695719
0.33352286 0.015745714 1.503 13023925
0.33638573 0.015745714 1.503 13287097
0.33924857 0.015745714 1.503 13023927
0.34211144 0.015745714 1.503 12694962
0.34497428 0.015745714 1.503 12694708
nan nan nan 3687002
-0.49228004 0.01612 1.302 5655102
-0.11127715 0.016627621 1.3430001 8612460
0.065800004 0.018200001 1.47 7761275
0.076521903 0.018769523 1.516 5715200
0.26234764 0.018435238 1.4890001 9277858
0.2664305 0.018521905 1.4960001 17
0.26928002 0.018521905 1.4960001 786688
0.26740003 0.018200001 1.47 1115651
0.27019998 0.018200001 1.47 2297344
0.273 0.018200001 1.47 3218442
nan nan nan 4075776
0.27992669 0.018286668 1.4770001 5128464
nan nan nan 5787178
nan nan nan 6313522
0.2920762 0.018521905 1.4960001 7035978
0.29630572 0.01860857 1.503 7430736
0.29916859 0.01860857 1.503 7694676
0.30203143 0.01860857 1.503 8089434
nan nan nan 5594241
nan nan nan 2238798
-0.49228004 0.0186 1.302 5457723
-0.11127715 0.019185714 1.3430001 8678253
0.068599999 0.021000002 1.47 3485856
0.077995241 0.02127143 1.4890001 11571078
nan nan nan 5199751
nan nan nan 4476002
-0.49228004 0.02108 1.302 5391167
-0.11127715 0.02174381 1.3430001 8940657
0.068320006 0.02370286 1.4640001 7827850
0.077680953 0.024010476 1.483 10780792
nan nan nan 3752048
-0.49417049 0.023650477 1.307 5193788
-0.11127715 0.024301905 1.3430001 8612460
0.068320006 0.02649143 1.4640001 10393216
0.077680953 0.026835239 1.483 7233628
nan nan nan 5792123
nan nan nan 2436680
-0.49417049 0.026140001 1.307 5390149
-0.11127715 0.026860001 1.3430001 8481128
0.068039998 0.029160002 1.4580001 10656940
0.077680953 0.029660001 1.483 4399902
0.080505721 0.029660001 1.483 10059085
nan nan nan 5003151
nan nan nan 5067115
-0.49417049 0.028629525 1.307 5258059
-0.11127715 0.029418096 1.3430001 8676967
0.070525713 0.031805713 1.452 5787231
0.080180004 0.032353338 1.4770001 5977671
nan nan nan 3951205
-0.49606097 0.031238094 1.312 4733262
-0.11127715 0.031976189 1.3430001 8611424
0.070185713 0.034404762 1.4450001 6643296
0.079800002 0.035 1.47 4593408
nan nan nan 6055043
nan nan nan 2568014
nan nan nan 1185601
-0.49417049 0.033608571 1.307 4142926
-0.11127715 0.034534287 1.3430001 8677217
0.072635233 0.037002858 1.439 1577116
0.082262866 0.037645716 1.4640001 11176835
nan nan nan 5528411
nan nan nan 592433
nan nan nan 4671599
nan nan nan 1710136
-0.49417049 0.036098097 1.307 3945543
-0.11127715 0.037092384 1.3430001 8808803
0.072029524 0.039412383 1.427 7171464
0.081195243 0.039909527 1.4450001 10123121
nan nan nan 4933723
nan nan nan 724042
nan nan nan 5395581
nan nan nan 1316415
-0.49417049 0.038587622 1.307 3814461
-0.11127715 0.039650477 1.3430001 8874596
0.071726672 0.041953336 1.4210001 9998458
0.080858096 0.042484764 1.439 6836555
0.083599046 0.042484764 1.439 10322525
nan nan nan 4476021
nan nan nan 1647445
nan nan nan 4148083
nan nan nan 5460585
-0.49417049 0.041077144 1.307 3550785
-0.11127715 0.042208571 1.3430001 8874596
0.071726672 0.044660006 1.4210001 10522276
0.083250478 0.045037143 1.4330001 9399599
1.2001599 0.068640001 2.184 6121621
nan nan nan 2042455
nan nan nan 3818098
nan nan nan 5198694
-0.49417049 0.04356667 1.307 3090765
-0.11127715 0.044766668 1.3430001 8874346
0.071726672 0.047366671 1.4210001 12300952
0.08290191 0.047566667 1.427 5844802
1.2001599 0.072800003 2.184 5988719
nan nan nan 68413
nan nan nan 6121369
nan nan nan 4079445
-0.49417049 0.046056192 1.307 3155777
-0.11177429 0.047536191 1.3490001 8940139
0.074747622 0.050284766 1.427 2432292
0.08290191 0.050284766 1.427 5514240
1.2036668 0.077453338 2.1980002 5133958
nan nan nan 4999262
nan nan nan 400737
nan nan nan 4738450
-0.49356189 0.048731431 1.312 4731956
-0.11177429 0.050105717 1.3490001 9007992
0.072914287 0.051702857 1.3920001 8418928
0.085260011 0.052780006 1.4210001 11108208
nan nan nan 3687006
nan nan nan 2830181
nan nan nan 3950997
nan nan nan 4013935
-0.49356189 0.051230475 1.312 4469286
-0.11177429 0.052675243 1.3490001 9336694
0.075294293 0.054159053 1.3870001 5590102
0.084900007 0.055252384 1.4150001 8807002
1.1842 0.084733337 2.1700001 6318225
nan nan nan 5001604
nan nan nan 2895704
-0.49356189 0.053729523 1.312 4732699
-0.11177429 0.055244766 1.3490001 10321785
-0.10920477 0.055244766 1.3490001 13150884
0.074968576 0.056555241 1.381 7300472
0.084900007 0.057947624 1.4150001 5454902
0.08728572 0.05774286 1.4100001 9795154
1.1842 0.088866673 2.1700001 6186098
nan nan nan 5991325
nan nan nan 1449531
-0.49606097 0.056228571 1.312 2960976
-0.11434382 0.057814289 1.3490001 9336417
0.074697144 0.058971431 1.376 8683143
0.086914286 0.060171429 1.404 8740096
nan nan nan 5132647
nan nan nan 794214
nan nan nan 6515592
-0.49544287 0.05895143 1.317 4867096
-0.49293429 0.05895143 1.317 5064475
-0.49042574 0.05895143 1.317 5918515
-0.10920477 0.060383812 1.3490001 8018299
-0.10663525 0.060383812 1.3490001 8610567
-0.10406572 0.060383812 1.3490001 12360768
0.074697144 0.061592385 1.376 11578234
0.086171433 0.062308576 1.3920001 5314574
1.1800667 0.097133338 2.1700001 5396369
nan nan nan 2635650
nan nan nan 6383727
-0.48791713 0.061460003 1.317 6115669
-0.48289999 0.061460003 1.317 6050128
-0.48039144 0.061460003 1.317 6246485
-0.47788286 0.061460003 1.317 6114899
-0.47717908 0.061693333 1.322 6049358
-0.47466096 0.061693333 1.322 6049358
-0.47214285 0.061693333 1.322 6245454
-0.46962479 0.061693333 1.322 6311247
-0.46710667 0.061693333 1.322 6246224
-0.46458858 0.061693333 1.322 6246224
-0.46416765 0.061973337 1.3280001 6114899
-0.46163812 0.061973337 1.3280001 6246485
-0.45703429 0.061693333 1.322 6312278
-0.4545162 0.061693333 1.322 6114899
-0.45199811 0.061693333 1.322 6048079
-0.44948 0.061693333 1.322 6311251
-0.44696191 0.061693333 1.322 6377810
-0.44646096 0.061973337 1.3280001 6509396
-0.44393143 0.061973337 1.3280001 6640730
-0.44140193 0.061973337 1.3280001 6509144
-0.44052479 0.062206667 1.3330001 6509144
-0.43798572 0.062206667 1.3330001 6509144
-0.43381336 0.061973337 1.3280001 6640216
-0.43128383 0.061973337 1.3280001 6640216
-0.4287543 0.061973337 1.3280001 6509396
-0.42622477 0.061973337 1.3280001 6575189
-0.42178094 0.061693333 1.322 6706775
-0.41926286 0.061693333 1.322 6772568
-0.41674477 0.061693333 1.322 6903902
-0.41422668 0.061693333 1.322 6838109
-0.41357714 0.061973337 1.3280001 6772568
-0.41104764 0.061973337 1.3280001 6838361
-0.40851811 0.061973337 1.3280001 6904154
-0.4059886 0.061973337 1.3280001 6904154
-0.40345907 0.061973337 1.3280001 7232092
-0.40092954 0.061973337 1.3280001 7166299
-0.39840001 0.061973337 1.3280001 7034965
-0.39736098 0.062206667 1.3330001 6969172
-0.39482191 0.062206667 1.3330001 6837334
-0.39081144 0.061973337 1.3280001 6771541
-0.38828191 0.061973337 1.3280001 6705496
-0.38575238 0.061973337 1.3280001 6705496
-0.38322288 0.061973337 1.3280001 6705496
-0.38069335 0.061973337 1.3280001 6771289
-0.37645525 0.061693333 1.322 6902614
-0.37393713 0.061693333 1.322 6836821
-0.37310478 0.061973337 1.3280001 6771793
-0.37057528 0.061973337 1.3280001 6771793
-0.36804575 0.061973337 1.3280001 6968407
-0.36551622 0.061973337 1.3280001 6836821
-0.36435333 0.062206667 1.3330001 6837073
-0.36181432 0.062206667 1.3330001 6837073
-0.35927525 0.062206667 1.3330001 6836821
-0.35673621 0.062206667 1.3330001 6771028
-0.3555257 0.062440004 1.3380001 6770006
-0.35165811 0.062206667 1.3330001 6901592
-0.34911907 0.062206667 1.3330001 6705235
-0.34658003 0.062206667 1.3330001 6573649
-0.34404096 0.062206667 1.3330001 6442324
-0.34150192 0.062206667 1.3330001 6442324
-0.33896285 0.062206667 1.3330001 6639442
-0.33642384 0.062206667 1.3330001 6771028
-0.33388478 0.062206667 1.3330001 6901592
-0.33134574 0.062206667 1.3330001 6901592
-0.33004001 0.062440004 1.3380001 7099223
-0.32749146 0.062440004 1.3380001 7033430
-0.32494286 0.062440004 1.3380001 6967385
-0.32239428 0.062440004 1.3380001 6967385
-0.31984574 0.062440004 1.3380001 6967637
-0.31729716 0.062440004 1.3380001 7033430
-0.31474859 0.062440004 1.3380001 7165266
-0.31220001 0.062440004 1.3380001 7165266
-0.30965143 0.062440004 1.3380001 7231061
-0.30710286 0.062440004 1.3380001 7296854
-0.30455428 0.062440004 1.3380001 7296852
-0.30200574 0.062440004 1.3380001 7362645
-0.24025048 0.062953338 1.3490001 7164496
-0.23768097 0.062953338 1.3490001 7230289
-0.23511145 0.062953338 1.3490001 7165266
-0.23254192 0.062953338 1.3490001 7099473
-0.22997241 0.062953338 1.3490001 7099473
-0.22740287 0.062953338 1.3490001 7033680
-0.22483334 0.062953338 1.3490001 7033680
-0.22226383 0.062953338 1.3490001 7033680
-0.21871716 0.06267333 1.3430001 6968643
-0.21615906 0.06267333 1.3430001 7034436
-0.21360095 0.06267333 1.3430001 7099723
-0.21104287 0.06267333 1.3430001 7099723
-0.2094162 0.062953338 1.3490001 7034182
-0.20684667 0.062953338 1.3490001 7099975
-0.20427716 0.062953338 1.3490001 7231813
-0.20170763 0.062953338 1.3490001 7297606
-0.19825238 0.06267333 1.3430001 7363147
-0.19569428 0.06267333 1.3430001 7231561
-0.19399907 0.062953338 1.3490001 7362125
-0.19142953 0.062953338 1.3490001 7362125
-0.18886 0.062953338 1.3490001 7362377
-0.18629049 0.062953338 1.3490001 7428170
-0.18372096 0.062953338 1.3490001 7559767
-0.18115143 0.062953338 1.3490001 7493974
-0.17858192 0.062953338 1.3490001 7558986
-0.1760124 0.062953338 1.3490001 7558986
-0.17344286 0.062953338 1.3490001 7427918
-0.17087334 0.062953338 1.3490001 7427918
-0.16830382 0.062953338 1.3490001 7493711
-0.16573429 0.062953338 1.3490001 7493711
