# .PCD v0.7 - Point Cloud Data file format
VERSION 0.7
FIELDS x y z rgb
SIZE 4 4 4 4
TYPE F F F F
COUNT 1 1 1 1
WIDTH 1034
HEIGHT 1
VIEWPOINT 0 0 0 1 0 0 0
POINTS 1034
DATA ascii
0.33533999 0.95424724 1.1534842 7.649359e-39
0.34571427 0.9539361 1.1522071 7.6486415e-39
0.35539433 0.9539361 1.152207 7.7404784e-39
0.36507428 0.9539361 1.152207 7.5571648e-39
0.37475431 0.95393622 1.1522071 7.5571634e-39
0.38443425 0.9539361 1.1522071 7.6493604e-39
0.39549717 0.95393616 1.1522071 7.5568061e-39
0.40517718 0.9539361 1.1522071 7.4642517e-39
0.41485715 0.95393616 1.1522073 7.372419e-39
0.42453715 0.95393622 1.1522071 7.3724162e-39
0.43145144 0.9539361 1.152207 7.3720645e-39
0.46464008 0.9539361 1.1522069 7.3724218e-39
0.47602198 0.95307362 1.1526225 7.1891067e-39
0.48538288 0.9539361 1.1522071 7.2805807e-39
0.49506286 0.9539361 1.1522071 7.280229e-39
0.50474286 0.9539361 1.1522071 6.9121653e-39
0.51442289 0.95476675 1.151807 6.9128814e-39
0.52548575 0.9539361 1.152207 6.9128842e-39
0.53491431 0.95427603 1.1520433 6.8214046e-39
0.54512227 0.95418537 1.1520872 6.9132415e-39
0.55452579 0.9539361 1.1522071 6.7288517e-39
0.56392914 0.95418537 1.1520872 6.6370134e-39
0.57558781 0.95479876 1.1517917 6.6366588e-39
0.58494854 0.9539361 1.1522071 6.5444618e-39
0.59453642 0.95368701 1.1523272 6.4522676e-39
0.60569143 0.9539361 1.1522071 6.4526305e-39
0.61606288 0.95705092 1.150707 6.636663e-39
0.62564409 0.95429218 1.1520357 6.4529878e-39
0.63496983 0.95395517 1.1528033 6.7302922e-39
0.64381874 0.95358014 1.1523784 7.1916277e-39
0.076452859 0.9651227 1.1551443 6.442834e-40
0.086910486 0.96642607 1.1595113 8.293641e-39
0.095017962 0.96502703 1.1535257 8.4762372e-39
0.10515274 0.96504325 1.1535177 8.290404e-39
0.11525144 0.96288228 1.1545584 8.1992888e-39
0.1238143 0.96600997 1.1530522 8.3833227e-39
0.13191429 0.96913767 1.151546 8.2003692e-39
0.14857715 0.96913767 1.151546 8.1078078e-39
0.15621431 0.96538442 1.1533535 8.2911243e-39
0.16524002 0.96538448 1.1533535 8.2918417e-39
0.17198451 0.96592063 1.1530952 8.2914816e-39
0.18547349 0.96699297 1.1525788 8.199293e-39
0.19376883 0.96663558 1.152751 8.1074561e-39
0.20610365 0.96574193 1.1531813 8.1081736e-39
0.21475714 0.96512532 1.1551431 8.1081736e-39
0.22487757 0.9649694 1.1573588 8.1078204e-39
0.23414615 0.96419466 1.1558291 8.0163395e-39
0.24494402 0.96363288 1.1541969 8.0166982e-39
0.25549719 0.96413338 1.1539558 8.1081778e-39
0.26521716 0.9628824 1.1545584 8.2003762e-39
0.27418947 0.96471077 1.1536778 7.9248613e-39
0.28500429 0.96382058 1.1541064 8.0174157e-39
0.29437715 0.96663558 1.152751 7.9252298e-39
0.30780002 0.96830362 1.1519477 7.7415602e-39
0.31576118 0.96813679 1.152028 7.7411973e-39
0.32520348 0.96563452 1.1532332 7.7408386e-39
0.33439326 0.96572566 1.1531889 7.6490031e-39
0.34436572 0.96788669 1.1521485 7.557162e-39
0.46470857 0.96746957 1.1523494 7.4649748e-39
0.47585279 0.96567303 1.1532145 7.2809436e-39
0.48350057 0.96763641 1.152269 7.2805863e-39
0.49016571 0.96663558 1.152751 7.1883893e-39
0.5026629 0.96913767 1.151546 7.0036435e-39
0.56329721 0.96830362 1.1519477 6.5444576e-39
0.59514171 0.96688569 1.1526307 6.3604321e-39
0.60217714 0.96830362 1.1519477 6.4522704e-39
0.62624574 0.96851212 1.1518472 6.1764037e-39
0.6357674 0.96663558 1.152751 6.6373833e-39
0.64105719 0.96830362 1.1519477 7.0983558e-39
0.65262854 0.96913767 1.151546 5.2580376e-39
0.075139999 0.97112656 1.1539178 6.4464214e-40
0.086560003 0.97613358 1.1570561 8.3840472e-39
0.093974866 0.9758895 1.1549538 8.752464e-39
0.10492001 0.97595239 1.1549237 8.4747967e-39
0.11461029 0.97463334 1.1555588 8.2911271e-39
0.12423773 0.97294199 1.1510458 8.567358e-39
0.13191429 0.97163975 1.150341 8.4751582e-39
0.14580001 0.97163981 1.150341 8.3829556e-39
0.155072 0.97504389 1.1526974 8.3829626e-39
0.16330858 0.97526681 1.1535889 8.3829626e-39
0.17496 0.97163975 1.150341 8.3829654e-39
0.18556714 0.97326744 1.151222 8.1992944e-39
0.19489931 0.97539508 1.1526947 8.1996545e-39
0.20527346 0.97443026 1.1518513 8.2000048e-39
0.21600255 0.97541016 1.1566646 8.0163353e-39
0.22478668 0.97445869 1.1578628 8.0159877e-39
0.23470575 0.97412938 1.1562773 8.1085365e-39
0.24485801 0.97467196 1.1555403 8.1081764e-39
0.25515431 0.97563827 1.1550748 8.1081806e-39
0.26519316 0.97463328 1.1555589 8.1085365e-39
0.27475268 0.97521371 1.1533768 7.9245082e-39
0.28377527 0.97371554 1.1548909 8.016701e-39
0.2938886 0.9746387 1.1538914 7.9252326e-39
0.30560741 0.97500139 1.1525276 7.7415546e-39
0.31520575 0.97163981 1.150341 7.7404672e-39
0.32490125 0.97443014 1.1518514 7.7408344e-39
0.33394 0.97489524 1.1521029 7.6490017e-39
0.34436572 0.97163975 1.150341 7.5568075e-39
0.3763029 0.97163981 1.150341 7.5568032e-39
0.46517143 0.97163981 1.150341 7.3734966e-39
0.47489145 0.97163975 1.150341 7.4642629e-39
0.48461145 0.97163981 1.150341 7.2798744e-39
0.49433142 0.97163975 1.150341 7.0961922e-39
0.50544 0.97163975 1.150341 7.0954678e-39
0.51238286 0.97163975 1.150341 7.0039966e-39
0.54709721 0.97163975 1.150341 6.9110877e-39
0.55542862 0.97163975 1.150341 6.6355882e-39
0.56376004 0.97163975 1.150341 6.5441045e-39
0.59430856 0.97163975 1.150341 6.4522718e-39
0.60402864 0.97163981 1.150341 6.4529878e-39
0.61791432 0.97163975 1.150341 6.4522844e-39
0.62485713 0.97163975 1.150341 6.176408e-39
0.63457721 0.97163981 1.150341 6.5451891e-39
0.64152002 0.97163975 1.150341 7.0061644e-39
0.65123999 0.97163975 1.150341 5.7197262e-39
0.074200004 0.98594356 1.1567717 4.5989495e-40
0.0854 0.98342079 1.1579865 7.0940286e-39
0.094938099 0.98452115 1.1530169 8.567714e-39
0.10462032 0.98362428 1.151969 8.1996461e-39
0.11433142 0.98317564 1.151445 8.1074533e-39
0.12510546 0.98340392 1.1513351 8.2911285e-39
0.13454857 0.9850598 1.1505377 8.1992958e-39
0.14640002 0.98443174 1.1508402 8.2907641e-39
0.15476573 0.98317552 1.151445 8.1067428e-39
0.16414547 0.98340392 1.1513351 8.1992972e-39
0.17475049 0.98485041 1.1506386 8.1074603e-39
0.18583839 0.98389328 1.1510996 8.0152633e-39
0.19520001 0.98317564 1.1514452 8.0149059e-39
0.20496003 0.9831754 1.1514452 8.0159793e-39
0.21562779 0.98475718 1.154489 8.1078134e-39
0.2254 0.98594356 1.1567717 8.0159835e-39
0.23466124 0.98591 1.1558365 8.0163451e-39
0.24527998 0.98670036 1.1564072 8.0159821e-39
0.25410384 0.98451942 1.1530179 8.0166982e-39
0.26527432 0.98452133 1.1530168 8.016701e-39
0.27479938 0.98362434 1.1519688 7.7415546e-39
0.28453287 0.9835121 1.1518379 7.924511e-39
0.2957553 0.98478138 1.1536989 7.9237893e-39
0.30553833 0.98584747 1.1541541 7.8330314e-39
0.3151086 0.98317552 1.151445 7.7411973e-39
0.32531241 0.9845221 1.1530166 7.7412029e-39
0.33485526 0.98384893 1.1522307 7.649359e-39
0.34518534 0.98425221 1.1509266 7.6493632e-39
0.3555429 0.98568791 1.1502352 7.7415616e-39
0.36530289 0.98568791 1.1502352 7.6490059e-39
-0.48077148 0.51612222 1.1699216 8.4780351e-39
-0.47590294 0.51699954 1.1694993 8.8464575e-39
-0.46860006 0.51612222 1.1699216 9.2156001e-39
-0.49487147 0.52915049 1.1691973 2.0279591e-39
-0.48998383 0.52915049 1.1691973 7.9255619e-39
-0.47387433 0.52123976 1.1674573 9.1226912e-39
-0.49364957 0.53135228 1.168137 2.211256e-39
-0.49338016 0.54306531 1.1693143 4.4218015e-39
-0.4838984 0.54597509 1.1696042 8.569502e-39
-0.47531545 0.54369676 1.16901 9.2145197e-39
-0.46779388 0.54269874 1.1687155 9.3981963e-39
-0.49096003 0.55503476 1.1667212 6.9078171e-39
-0.48500198 0.55480123 1.1668336 8.6609746e-39
-0.47515815 0.55480129 1.1668336 9.3063594e-39
-0.46881142 0.55170882 1.1683228 9.3063538e-39
-0.49283695 0.5641287 1.1654249 4.7005254e-39
-0.48429692 0.56529844 1.1665353 8.6613459e-39
-0.47397858 0.56545001 1.1672552 9.306358e-39
-0.46815526 0.56497312 1.1674848 9.3067167e-39
-0.49280727 0.57438219 1.1634582 5.1604203e-39
-0.48561332 0.57553887 1.1665587 8.5691503e-39
-0.47558948 0.57540083 1.1662784 9.3059951e-39
-0.464524 0.5755955 1.167302 9.3060007e-39
-0.49476674 0.58518881 1.1648846 4.7909358e-39
-0.48545715 0.5861516 1.1683849 8.8450113e-39
-0.47567362 0.58615237 1.1678801 9.3981921e-39
-0.46588093 0.58580714 1.1681238 9.3059993e-39
-0.45558292 0.58615154 1.1683848 9.3978292e-39
-0.44935906 0.58615148 1.168385 9.3981851e-39
-0.39832383 0.5839085 1.1694651 9.9499282e-39
-0.5035581 0.59740007 1.1685175 1.5716515e-39
-0.49438775 0.59416091 1.1641314 5.7118187e-39
-0.48545715 0.59512335 1.1640643 8.5691419e-39
-0.47555453 0.5952397 1.1645631 9.4911066e-39
-0.46549255 0.59542221 1.1666951 9.3063538e-39
-0.45526257 0.59499294 1.1670868 9.3981935e-39
-0.44589218 0.59379274 1.1680349 9.5822218e-39
-0.43566734 0.59589905 1.1692405 9.8580857e-39
-0.42430261 0.5961135 1.1691372 9.7666173e-39
-0.41109332 0.5951485 1.1696018 9.6747804e-39
-0.40859431 0.5951485 1.1696018 9.9502813e-39
-0.4929257 0.60185236 1.1608237 6.2642778e-39
-0.48419908 0.60497367 1.1620954 8.8453687e-39
-0.47499838 0.60597467 1.1662382 9.3989124e-39
-0.46458414 0.60695565 1.1688486 9.3978362e-39
-0.45405143 0.60758722 1.1691612 9.2138022e-39
-0.44419637 0.60742581 1.1692389 9.3978306e-39
-0.43398291 0.60758722 1.1691612 9.4900262e-39
-0.42330477 0.60598999 1.1677107 9.8580842e-39
-0.41391426 0.60758722 1.1691612 9.8580871e-39
-0.40388 0.60758722 1.1691612 9.9499239e-39
-0.39384571 0.60758722 1.1691612 1.0041758e-38
-0.38556743 0.6073612 1.1692699 1.0133956e-38
-0.49481145 0.61316103 1.1609274 5.618907e-39
-0.48432371 0.61267114 1.16178 8.8453658e-39
-0.4743152 0.61415565 1.1650187 9.490022e-39
-0.46433663 0.61414158 1.1660049 9.490022e-39
-0.45491332 0.61440599 1.1686522 9.397832e-39
-0.4445464 0.6146884 1.1685162 9.4896675e-39
-0.43386129 0.61421716 1.1667612 9.5818603e-39
-0.42394856 0.61436754 1.1658958 9.7658914e-39
-0.41391429 0.61436754 1.1658959 9.8580814e-39
-0.40387997 0.61436754 1.1658961 9.7662488e-39
-0.39413524 0.61358517 1.1662725 9.9499197e-39
-0.38542762 0.6143868 1.167274 1.0134315e-38
-0.37519619 0.61783445 1.1697758 1.0133954e-38
-0.36512381 0.61783445 1.1697758 1.0134307e-38
-0.35631046 0.61783445 1.1697758 1.0410172e-38
-0.34749717 0.61783445 1.1697758 1.050202e-38
-0.49393773 0.62408632 1.1612157 7.2805471e-39
-0.48321357 0.62312573 1.1616782 8.6609788e-39
-0.47446883 0.62397373 1.1631198 8.8450169e-39
-0.4654054 0.62461877 1.1651213 9.0297683e-39
-0.45521361 0.62390536 1.165684 9.029411e-39
-0.44607314 0.62397331 1.1668196 9.2138008e-39
-0.4359141 0.62331009 1.1666765 9.1216052e-39
-0.42477235 0.62426537 1.1649712 9.3981879e-39
-0.41552669 0.62523425 1.1654725 9.4900262e-39
-0.40549016 0.62336129 1.165881 9.3978264e-39
-0.3949976 0.62257814 1.1674914 9.5811372e-39
-0.38552037 0.62327933 1.1671537 9.8577297e-39
-0.37519619 0.62378979 1.166908 9.8577325e-39
-0.36512384 0.62237197 1.1675906 1.0042111e-38
-0.35681412 0.62101066 1.1682463 1.0317975e-38
-0.49795336 0.63428277 1.1618549 4.516179e-39
-0.47466093 0.63371563 1.1621281 2.0265032e-39
-0.46537715 0.63487256 1.1654884 2.579677e-39
-0.45505318 0.63586354 1.1665423 1.4736881e-39
-0.44600105 0.63514149 1.168101 3.500913e-39
-0.43254858 0.63203371 1.1695975 9.3049245e-39
-0.42405665 0.63561505 1.1678729 4.0540826e-39
-0.41467327 0.63544995 1.1670643 2.7637053e-39
-0.40626967 0.63481921 1.168256 5.5281379e-39
-0.39460573 0.63203371 1.1695975 9.6733385e-39
-0.38554156 0.63488251 1.1682255 4.1452048e-39
-0.37184003 0.63203371 1.1695975 9.4893031e-39
-0.366781 0.63203371 1.1695975 9.6726224e-39
-0.46438375 0.6445868 1.164246 9.8602408e-39
-0.45541063 0.64594644 1.1662272 9.6747692e-39
-0.44523844 0.64606553 1.1656148 1.0320496e-38
-0.43426585 0.64675122 1.1675044 1.124317e-38
-0.42443568 0.64395028 1.1644754 9.9524337e-39
-0.41442034 0.6426692 1.1644758 9.8602184e-39
-0.40468666 0.64459801 1.1647362 1.0782547e-38
-0.39584792 0.64595431 1.1665934 1.087367e-38
-0.38752216 0.64556545 1.1686306 1.087439e-38
-0.35292763 0.64813894 1.1673912 1.3638106e-38
-0.34404093 0.64642322 1.1682174 1.1979298e-38
-0.33714926 0.64552462 1.1686503 1.0872949e-38
-0.46416768 0.65026593 1.1608174 8.2925648e-39
-0.45531431 0.65026593 1.1608174 8.6606257e-39
-0.44519621 0.65026593 1.1608174 8.7531758e-39
-0.43462765 0.65034628 1.1635534 9.3049161e-39
-0.42748952 0.65026593 1.1608174 9.2123631e-39
-0.40219432 0.65026593 1.1608174 9.3971075e-39
-0.39422768 0.65447998 1.1621176 9.3967488e-39
-0.38623223 0.65519881 1.1654713 9.5811386e-39
-0.37514481 0.65691948 1.1671269 9.58114e-39
-0.36493507 0.65788233 1.1671386 9.6729755e-39
-0.35411531 0.65556872 1.1650938 9.6729769e-39
-0.34531048 0.65500176 1.1640861 9.8573668e-39
-0.33625695 0.65592313 1.1657236 1.0041038e-38
-0.32522458 0.65660524 1.1643544 1.0041031e-38
-0.31602287 0.65745866 1.1684527 1.0317262e-38
-0.30837715 0.65745866 1.1684527 9.8570052e-39
-0.29404145 0.65717161 1.1685909 1.0317981e-38
-0.28544003 0.65745866 1.1684526 1.0133235e-38
-0.27524573 0.65745866 1.1684526 1.0133595e-38
-0.26505148 0.65745866 1.1684526 1.031726e-38
-0.25740573 0.65745866 1.1684527 1.0317619e-38
-0.46210667 0.66186458 1.1607813 8.2925634e-39
-0.45195049 0.66186458 1.1607813 8.2925592e-39
-0.44854859 0.66893953 1.1629238 8.3843891e-39
-0.40394863 0.66893953 1.1629238 8.7524556e-39
-0.39319894 0.66513836 1.1626732 9.1205192e-39
-0.38483429 0.66549528 1.1645824 9.1208807e-39
-0.37518612 0.66582328 1.1644245 9.213075e-39
-0.36425546 0.66538149 1.1635274 9.3049105e-39
-0.3545455 0.66629016 1.1641997 9.396746e-39
-0.34405717 0.66664332 1.1640295 9.5811372e-39
-0.33415693 0.66611344 1.1642847 9.7651698e-39
-0.32480252 0.66542542 1.162535 9.5811344e-39
-0.31602287 0.66549534 1.1645824 9.9491995e-39
-0.30613023 0.66656107 1.1664476 9.7648054e-39
-0.29418096 0.66798222 1.1689343 9.7651698e-39
-0.2839486 0.66798222 1.1689343 9.7651712e-39
-0.27468783 0.66461504 1.1661161 9.9492051e-39
-0.26505145 0.66434723 1.1651354 9.9495596e-39
-0.25740573 0.66434717 1.1651354 1.0041045e-38
-0.50141811 0.67437381 1.1621567 7.2791261e-39
-0.49824572 0.67238379 1.1612651 7.8294287e-39
-0.45237145 0.67123574 1.161818 8.109956e-39
-0.44854859 0.67123574 1.161818 8.201423e-39
-0.42306286 0.67353189 1.1607122 7.5568046e-39
-0.41541716 0.67238384 1.1612651 8.0152563e-39
-0.40522289 0.67238384 1.1612651 7.9234152e-39
-0.39404479 0.67334729 1.161911 8.7528073e-39
-0.384644 0.67431164 1.1625565 9.2127148e-39
-0.37543163 0.67357773 1.1617999 9.1212409e-39
-0.36444572 0.67238379 1.1612651 9.3045545e-39
-0.35425144 0.67238379 1.1612651 9.396746e-39
-0.34462637 0.67304713 1.1615624 9.5807771e-39
-0.33386287 0.67238384 1.1612651 9.7648124e-39
-0.32494286 0.6723839 1.1612651 9.7648096e-39
-0.31556383 0.67437375 1.1621566 9.7648152e-39
-0.30466887 0.67450863 1.1644857 9.7651684e-39
-0.29418096 0.67489642 1.1656047 9.7655285e-39
-0.28394857 0.67489648 1.1656047 9.8577213e-39
-0.27499527 0.67489642 1.1656046 9.9495568e-39
-0.26668143 0.67393625 1.1660671 9.9495624e-39
-0.25836763 0.67259169 1.1667145 9.9492065e-39
-0.5026657 0.6806584 1.1628298 6.725965e-39
-0.39010954 0.68296313 1.16172 8.8453701e-39
-0.38499331 0.68296313 1.1617199 9.1208779e-39
-0.37638888 0.6831727 1.1616192 9.2127134e-39
-0.36580762 0.68449968 1.1609801 9.213075e-39
-0.35557523 0.68411553 1.161165 9.2130736e-39
-0.34534287 0.68296313 1.1617198 9.3967488e-39
-0.33511049 0.68296313 1.1617198 9.5807785e-39
-0.32487813 0.68296313 1.16172 9.5811358e-39
-0.31464571 0.68296313 1.16172 9.7655271e-39
-0.30441335 0.68296325 1.1617198 9.6729713e-39
-0.29418099 0.68296325 1.16172 9.6733343e-39
-0.2839486 0.68296313 1.1617199 9.8573668e-39
-0.27495438 0.68539548 1.1653919 9.9495638e-39
-0.26506236 0.6834653 1.1676253 9.9495624e-39
-0.25823718 0.68369931 1.1680249 9.949561e-39
-0.3623029 0.69990474 1.1602207 9.3971075e-39
-0.35459432 0.69990474 1.1602207 9.3049091e-39
-0.34354538 0.6978212 1.1612242 9.3963872e-39
-0.33403811 0.69758964 1.1613357 9.4889416e-39
-0.32551539 0.69704366 1.1622922 9.4893017e-39
-0.31519496 0.69566053 1.1622648 9.6733357e-39
-0.30542293 0.69506425 1.1625519 9.5814988e-39
-0.29463878 0.69720387 1.1615216 9.7655313e-39
-0.28576776 0.69577068 1.1622118 9.6733357e-39
-0.27544621 0.69424593 1.1657209 9.9495582e-39
-0.26564193 0.69552797 1.1678782 1.0041397e-38
-0.25919431 0.69552797 1.1678782 9.9499197e-39
0.074792385 0.6978516 1.1667591 7.0021805e-39
0.14442667 0.69436616 1.1684377 6.6312498e-39
-0.34301335 0.70946985 1.161164 9.3049119e-39
-0.33450252 0.70737857 1.1621712 9.4889402e-39
-0.32431528 0.70569384 1.1629825 9.4889416e-39
-0.31464386 0.70569378 1.1629825 9.6733343e-39
-0.30458555 0.70621669 1.1627308 9.7655271e-39
-0.29414776 0.70631075 1.163379 9.7655313e-39
-0.28406921 0.705661 1.1642317 9.6736958e-39
-0.2754471 0.70495588 1.1659495 9.7655285e-39
-0.26462042 0.70512444 1.1665212 9.8573668e-39
-0.25724384 0.70189905 1.1685097 9.8577227e-39
0.067302868 0.70276088 1.1699445 1.0225068e-38
0.074946843 0.70512366 1.1663786 7.0018232e-39
-0.34430289 0.71179354 1.160045 9.3971075e-39
-0.33393353 0.71612179 1.1625855 9.4889402e-39
-0.32459909 0.71617013 1.1622537 9.5811344e-39
-0.3157362 0.71579838 1.161648 9.7651684e-39
-0.30489242 0.71627635 1.1624268 9.5814932e-39
-0.29509717 0.71558809 1.1637673 9.5818575e-39
-0.28474289 0.71558815 1.1637673 9.6733343e-39
-0.27448809 0.71468568 1.1647568 9.6733357e-39
-0.26422858 0.71494937 1.1651847 9.7651698e-39
-0.25479999 0.71874738 1.1689053 9.9499169e-39
-0.24440001 0.71874738 1.1689053 1.0041759e-38
-0.234 0.71874744 1.1689053 9.949561e-39
-0.22542 0.71851313 1.1690181 1.0041759e-38
-0.21579999 0.71874738 1.1689051 1.0133236e-38
-0.2054 0.71874738 1.1689051 1.0225428e-38
-0.1963 0.7187475 1.1689053 1.0225433e-38
-0.1014 0.71757615 1.1694692 1.0409459e-38
-0.3624 0.72141862 1.1609594 9.2127162e-39
-0.34816286 0.72141862 1.1609594 9.3971075e-39
-0.33392572 0.72141862 1.1609594 9.4893003e-39
-0.32486576 0.72141862 1.1609595 9.3971075e-39
-0.31580573 0.72141862 1.1609594 9.5807869e-39
-0.30545145 0.72141862 1.1609594 9.5814974e-39
-0.29509717 0.72141862 1.1609594 9.3056321e-39
-0.28496632 0.72607487 1.1640447 9.4896619e-39
-0.27560002 0.72577494 1.165521 9.6736958e-39
-0.26520002 0.72577494 1.165521 9.7658872e-39
-0.25569335 0.72566885 1.1677917 9.8577241e-39
-0.24435446 0.72645992 1.1683624 9.8577241e-39
-0.23442858 0.7259351 1.1682186 9.8577241e-39
-0.22501272 0.72715974 1.1685538 9.9499169e-39
-0.21372066 0.72715974 1.1685538 1.0041398e-38
-0.20484428 0.72516829 1.167478 1.0133595e-38
-0.19634287 0.72715974 1.1685538 1.0133595e-38
-0.18527621 0.72960901 1.1692243 1.0225433e-38
-0.17483811 0.72960901 1.1692243 1.0409459e-38
-0.16700953 0.72960901 1.1692243 1.0317266e-38
-0.15135239 0.72960901 1.1692243 1.0500585e-38
-0.13308573 0.72960901 1.1692243 1.0408755e-38
-0.12525715 0.72960901 1.1692243 1.0317265e-38
-0.11481906 0.72960901 1.1692243 1.0225068e-38
-0.10438097 0.72960901 1.1692243 1.0133226e-38
-0.095247626 0.72960901 1.1692243 1.0317263e-38
-0.084809534 0.72960901 1.1692243 1.0226148e-38
-0.075676195 0.72960901 1.1692243 1.0317618e-38
-0.065238103 0.72960901 1.1692243 1.0317983e-38
-0.055234924 0.72960901 1.1692243 1.0317989e-38
-0.048276197 0.72960901 1.1692243 1.0225796e-38
-0.033923812 0.72960901 1.1692243 1.0409459e-38
0.026095241 0.72960901 1.1692243 1.0501654e-38
0.030009525 0.72960901 1.1692243 1.0501654e-38
0.045666672 0.72960901 1.1692243 1.0317263e-38
0.055234924 0.72960901 1.1692243 1.031726e-38
0.061323814 0.72960901 1.1692243 1.0133222e-38
0.13569525 0.72960901 1.1692243 6.0773866e-39
0.14221907 0.72960901 1.1692243 6.1724661e-39
-0.3211 0.73631632 1.1604445 9.3971075e-39
-0.31849998 0.73631632 1.1604445 9.4893031e-39
-0.28522 0.73420799 1.1614597 9.5814974e-39
-0.27560002 0.73397374 1.1615726 9.6733329e-39
-0.26535952 0.73442262 1.1622814 9.8580814e-39
-0.25573337 0.73548681 1.1663936 9.6736888e-39
-0.24529524 0.73548675 1.1663935 9.9495596e-39
-0.23541635 0.73515087 1.1665554 9.9499211e-39
-0.22520192 0.73243034 1.1678656 9.949561e-39
-0.21311113 0.73470318 1.1667711 1.0041757e-38
-0.20484763 0.73548675 1.1663936 1.0133955e-38
-0.19571432 0.73548681 1.1663936 1.0133952e-38
-0.18501525 0.73525167 1.166507 1.0317265e-38
-0.17554069 0.73485386 1.1666985 1.0501294e-38
-0.16700953 0.73313564 1.1675259 1.0409459e-38
-0.11481906 0.73196012 1.168092 1.0317263e-38
-0.10438096 0.73196012 1.168092 1.0133587e-38
-0.082200006 0.7331357 1.1675259 1.0133952e-38
-0.075676195 0.7331357 1.1675259 1.0409825e-38
-0.065238096 0.73196012 1.168092 1.0317983e-38
-0.056104768 0.73290056 1.1676391 1.0594217e-38
-0.048276197 0.73196012 1.168092 1.0133601e-38
-0.033923812 0.73196012 1.168092 1.0226149e-38
0.048276197 0.73196012 1.168092 1.0409462e-38
0.055234924 0.73196018 1.168092 1.0317623e-38
0.061323814 0.73196012 1.168092 1.0132872e-38
0.12917143 0.7331357 1.1675259 8.6598928e-39
0.13569525 0.7331357 1.1675259 8.6609802e-39
0.14221907 0.73196012 1.168092 7.3727665e-39
-0.28313336 0.74724221 1.1607325 9.6736986e-39
-0.27400002 0.74606669 1.1612988 9.4896661e-39
-0.26352841 0.74648404 1.1624296 9.4900262e-39
-0.25473273 0.7458905 1.1658231 9.6736916e-39
-0.24483298 0.74446082 1.1640699 9.8577297e-39
-0.23534463 0.74586028 1.1665207 9.9495596e-39
-0.22540192 0.74579215 1.1680903 9.9492051e-39
-0.21529251 0.74629813 1.1678466 9.9495624e-39
-0.20428573 0.74643159 1.1666725 1.0041752e-38
-0.19364807 0.74660951 1.1676968 1.0133595e-38
-0.18477714 0.74697274 1.1675218 1.0133599e-38
-0.17522939 0.74629807 1.1678466 1.0225789e-38
-0.1659063 0.74437517 1.1687726 1.0409099e-38
-0.15463619 0.74224997 1.1697961 1.0225419e-38
-0.14349714 0.74284029 1.1695118 1.0409459e-38
-0.13497905 0.74343073 1.1692276 1.040945e-38
-0.12580572 0.74343067 1.1692275 1.040946e-38
-0.1153219 0.74343061 1.1692276 1.0409463e-38
-0.10876952 0.74343067 1.1692276 1.0501654e-38
-0.085180961 0.74461138 1.1686589 1.0225786e-38
-0.076444454 0.74382424 1.1690379 1.0409817e-38
-0.065523803 0.74343061 1.1692276 1.0226148e-38
-0.054166354 0.7430371 1.1694171 1.0317985e-38
-0.047177143 0.74224997 1.1697961 1.0317982e-38
0.016512001 0.74319452 1.1693413 1.0501653e-38
0.024899049 0.74343061 1.1692276 1.0317983e-38
0.034072381 0.74343061 1.1692276 1.0501657e-38
0.044743404 0.74326199 1.1693089 1.0593495e-38
0.056112211 0.74504071 1.1684523 1.0317269e-38
0.064213336 0.74461138 1.168659 1.0409825e-38
0.073386669 0.74933416 1.1663846 1.1057351e-38
0.09828572 0.74343067 1.1692276 9.0268901e-39
0.10465089 0.74545485 1.1682528 9.211996e-39
0.1153219 0.74579215 1.1680903 9.4882241e-39
0.12580572 0.74579215 1.1680903 9.5804212e-39
0.13497904 0.74579209 1.1680903 9.6722539e-39
0.14251429 0.74431622 1.1688011 9.580417e-39
0.15507303 0.74224997 1.1697962 9.4885857e-39
-0.29354668 0.75877976 1.1618358 9.3978278e-39
-0.26078478 0.75523764 1.1635416 9.5818617e-39
-0.25467181 0.75492793 1.1640872 9.5818631e-39
-0.24450728 0.75508928 1.1661357 9.8573668e-39
-0.23447108 0.75701237 1.1682366 9.8577269e-39
-0.22518563 0.75574058 1.1671841 9.8580828e-39
-0.21543875 0.75588644 1.1669289 1.0041761e-38
-0.20486884 0.75565809 1.1665765 9.9495624e-39
-0.19424455 0.75520152 1.1658711 1.0041757e-38
-0.18418597 0.75576931 1.1663126 1.0133598e-38
-0.17616037 0.75586307 1.1680962 1.0133954e-38
-0.16572002 0.75442702 1.1694815 1.0317625e-38
-0.15782857 0.75442702 1.1694815 1.0317269e-38
-0.12626286 0.75442702 1.1694815 1.0225063e-38
-0.11442571 0.75679696 1.1683403 1.0133599e-38
-0.10509948 0.75679696 1.1683402 1.0226147e-38
-0.093908004 0.75655997 1.1684545 1.0226147e-38
-0.084504046 0.75590819 1.1687682 1.0225433e-38
-0.076941431 0.75738943 1.1680548 1.0226149e-38
-0.053924765 0.75442708 1.1694815 1.0226149e-38
-0.042087622 0.75442702 1.1694815 1.0226148e-38
-0.03551143 0.75442708 1.1694815 1.0226147e-38
0.025647145 0.75501949 1.1691961 1.0409103e-38
0.034196194 0.75679696 1.1683404 1.0317262e-38
0.044718094 0.75679696 1.1683402 1.0317263e-38
0.055239998 0.75679696 1.1683402 1.0133595e-38
0.066074722 0.75608414 1.1676745 1.0318706e-38
0.074471317 0.75508767 1.165695 8.0166912e-39
0.098642863 0.75442702 1.1694815 9.3038147e-39
0.10561356 0.75570339 1.1682503 9.3963858e-39
0.11546159 0.75497317 1.1655188 9.5807771e-39
0.12479841 0.7547015 1.1674995 9.5807813e-39
0.13283905 0.75442708 1.1694815 9.4885871e-39
0.16572 0.75442702 1.1694815 9.3971033e-39
0.17492667 0.75561202 1.1689109 9.4892905e-39
0.18018763 0.75442702 1.1694815 9.4893003e-39
0.19728573 0.75561196 1.1689109 9.212719e-39
0.39457142 0.75561202 1.1689109 8.2014496e-39
0.40509337 0.75442702 1.1694815 8.2929249e-39
0.41166955 0.75442702 1.1694815 8.2014482e-39
-0.29354668 0.76114112 1.1606987 9.3056335e-39
-0.28568384 0.76114112 1.1606987 9.4900234e-39
-0.27569288 0.76489401 1.1616662 9.3059951e-39
-0.26498678 0.76494342 1.162336 9.5818603e-39
-0.25478041 0.76559991 1.1641011 9.6733357e-39
-0.24564239 0.76560736 1.1663171 9.7658886e-39
-0.23449342 0.76653987 1.1684916 9.8573682e-39
-0.22496478 0.76613945 1.1678369 9.9499197e-39
-0.21473858 0.76518655 1.1668613 9.8577227e-39
-0.20491946 0.7656644 1.1680655 9.9495624e-39
-0.19521907 0.76612306 1.1682887 9.949561e-39
-0.18424724 0.76704019 1.1687349 9.9495596e-39
-0.17436573 0.76841599 1.1694043 9.9499169e-39
-0.16511905 0.76841605 1.1694044 1.0225069e-38
-0.15587237 0.76841599 1.1694043 1.013287e-38
-0.14530477 0.76841593 1.1694043 1.0041399e-38
-0.13473715 0.76841593 1.1694043 9.9499183e-39
-0.12416954 0.76841599 1.1694043 1.0133235e-38
-0.11446977 0.76669621 1.1685675 1.0133238e-38
-0.10552382 0.766123 1.1682887 9.9499197e-39
-0.094562858 0.76593643 1.1675713 1.0041758e-38
-0.084540956 0.76841593 1.1694043 1.0041759e-38
-0.074435435 0.76704019 1.1687349 1.0317627e-38
-0.064726673 0.76841593 1.1694044 1.0041757e-38
-0.055480003 0.76841593 1.1694043 9.949561e-39
-0.044912383 0.76841599 1.1694043 1.0041398e-38
-0.035665721 0.76841593 1.1694043 1.0041401e-38
-0.022456193 0.76722586 1.1699774 1.0226147e-38
-0.015285308 0.76824594 1.169486 1.0133952e-38
-0.0052838097 0.76841593 1.1694043 1.0042118e-38
0.0013209524 0.76841599 1.1694043 9.9502687e-39
0.027740002 0.76722586 1.1699774 1.0317992e-38
0.034344763 0.76841599 1.1694043 1.0133954e-38
0.044912383 0.76841599 1.1694043 1.0317626e-38
0.055480003 0.76841593 1.1694041 1.031727e-38
0.065971911 0.76699245 1.168425 1.0594936e-38
0.074506484 0.76480979 1.1658133 7.0950992e-39
0.1056762 0.76841593 1.1694044 9.3041944e-39
0.11446977 0.76669621 1.1685677 9.4885843e-39
0.12284859 0.76722592 1.1699774 9.7648152e-39
0.16511907 0.76841593 1.1694043 9.3963816e-39
0.17436573 0.76841593 1.1694043 9.3967502e-39
0.18474464 0.76824594 1.1694863 9.3052664e-39
0.19493486 0.76824594 1.1694863 9.4882325e-39
0.4028905 0.76722592 1.1699774 8.1085393e-39
0.4139865 0.76817793 1.1695188 7.9259459e-39
0.42930955 0.76841599 1.1694043 8.2014482e-39
0.43459338 0.76841605 1.1694044 8.0163395e-39
-0.27225429 0.77220184 1.1609216 9.3056293e-39
-0.26461229 0.7751084 1.1642786 9.3059909e-39
-0.25470003 0.77600259 1.164271 9.5814988e-39
-0.24543297 0.7757948 1.1658508 9.6733357e-39
-0.23512951 0.7755568 1.1659653 9.6736972e-39
-0.22456188 0.77555674 1.1659653 9.7655299e-39
-0.21399432 0.77555668 1.1659653 9.7655327e-39
-0.20474766 0.77555692 1.1659654 9.8573668e-39
-0.19550097 0.7755568 1.1659653 9.9495624e-39
-0.18493332 0.77555674 1.1659653 9.9492051e-39
-0.17436571 0.77555674 1.1659653 1.0132875e-38
-0.16511907 0.77555674 1.1659654 1.0225068e-38
-0.15587239 0.77555674 1.1659653 1.0041752e-38
-0.14625847 0.77586377 1.1662445 1.0041395e-38
-0.13641754 0.77635485 1.1666911 1.0041394e-38
-0.12424573 0.77483332 1.167239 1.0225788e-38
-0.11492287 0.77436668 1.1665387 1.0133596e-38
-0.10541201 0.77531874 1.16608 1.0041757e-38
-0.095108584 0.77555668 1.1659653 1.0133595e-38
-0.084540963 0.77555668 1.1659653 1.0133952e-38
-0.073973328 0.77555674 1.1659653 1.0041759e-38
-0.064966843 0.77523214 1.1661217 9.949561e-39
-0.055480003 0.77436674 1.1665386 1.0133951e-38
-0.044630989 0.77516365 1.1670086 9.9499211e-39
-0.035397384 0.77665943 1.1682094 9.949561e-39
-0.025188573 0.7795471 1.1695936 1.0133962e-38
-0.015104571 0.77803493 1.1692117 1.0041758e-38
-0.0052933334 0.77576679 1.1686392 1.0133595e-38
0.0045064762 0.77803487 1.1692117 1.0041757e-38
0.015908571 0.77954704 1.1695935 1.0041758e-38
0.025188573 0.7795471 1.1695936 1.0133599e-38
0.034406673 0.77576673 1.1686392 1.0225789e-38
0.044438783 0.77630681 1.1687756 1.0133594e-38
0.056160409 0.77630681 1.1687754 9.9492065e-39
0.065277427 0.77559882 1.1665001 1.0041759e-38
0.073727883 0.77550548 1.16636 8.1089008e-39
0.080868572 0.77954704 1.1695935 5.6051939e-45
0.096777156 0.7795471 1.1695936 9.857357e-39
0.10581727 0.77511925 1.1682574 9.3963886e-39
0.11343461 0.77742356 1.1687663 9.4882311e-39
0.12461714 0.77954704 1.1695935 9.488943e-39
0.13522287 0.77954704 1.1695935 9.4885843e-39
0.14582857 0.77954704 1.1695935 9.4885829e-39
0.15510859 0.7795471 1.1695936 9.4882283e-39
0.16438858 0.77954704 1.1695935 9.3049147e-39
0.17499429 0.77954704 1.1695935 9.3971061e-39
0.18560001 0.77954704 1.1695935 9.3974578e-39
0.19523485 0.7759068 1.1681755 9.1208849e-39
0.20150858 0.77954704 1.1695935 9.0286921e-39
0.42592224 0.77742356 1.1687663 7.9259473e-39
0.4343774 0.77516478 1.1672642 7.9248683e-39
0.52233148 0.77954704 1.1695935 7.3738553e-39
-0.26286957 0.7838878 1.1619534 9.3978264e-39
-0.25494385 0.7838878 1.1619536 9.4893059e-39
-0.24569714 0.78388786 1.1619537 9.3974676e-39
-0.23512952 0.7838878 1.1619537 9.4900248e-39
-0.22469525 0.78436017 1.1626509 9.3978292e-39
-0.21412447 0.78436017 1.1626509 9.5818603e-39
-0.20474765 0.7838878 1.1619536 9.5818589e-39
-0.19550097 0.7838878 1.1619536 9.7655285e-39
-0.18493333 0.7838878 1.1619534 9.8570095e-39
-0.17457527 0.7848326 1.1633482 9.8570067e-39
-0.1652524 0.78451765 1.1628834 1.0041038e-38
-0.15587236 0.7838878 1.1619537 9.857364e-39
-0.14507833 0.78395575 1.1627748 9.8570052e-39
-0.13484411 0.78603107 1.166471 9.8566465e-39
-0.12461714 0.78551918 1.1667173 1.0041039e-38
-0.11401142 0.78551912 1.1667173 1.0042113e-38
-0.10460604 0.78577453 1.1647446 9.9499183e-39
-0.095337152 0.78577459 1.1647446 1.0041758e-38
-0.084540956 0.7838878 1.1619537 1.0041394e-38
-0.074017793 0.78436029 1.1626509 9.9495638e-39
-0.064598672 0.78510636 1.1646965 9.8577255e-39
-0.055680003 0.78551912 1.1667175 9.9499225e-39
-0.045329589 0.78557026 1.1663231 9.9499268e-39
-0.034194227 0.78557026 1.1663228 9.8573696e-39
-0.025453717 0.78480256 1.1670626 9.9499225e-39
-0.015398683 0.78487605 1.1670271 9.949561e-39
-0.0060167038 0.78487599 1.167027 9.9495624e-39
0.0054922453 0.7829597 1.1679502 9.9499155e-39
0.015719187 0.7829597 1.1679502 9.9495624e-39
0.025188573 0.78551924 1.1667175 9.9491967e-39
0.034468576 0.78551912 1.1667173 9.9492037e-39
0.045074284 0.78551912 1.1667175 1.0041399e-38
0.055680007 0.78551918 1.1667174 9.8573668e-39
0.064622961 0.78538984 1.1651148 9.8577269e-39
0.074109055 0.78470564 1.1643343 7.1862271e-39
0.080868572 0.78193593 1.1684431 0
0.097155921 0.78364223 1.1676214 9.6733371e-39
0.10473143 0.78551912 1.1667174 9.21164e-39
0.11401142 0.78551912 1.1667173 9.39639e-39
0.12461714 0.78551918 1.1667173 9.4885857e-39
0.13522287 0.78551912 1.1667175 9.4885857e-39
0.14544982 0.7850073 1.1669641 9.4885829e-39
0.15569779 0.78459018 1.1671648 9.4885885e-39
0.16408265 0.78469229 1.1671156 9.3967502e-39
0.17207773 0.78384697 1.1675228 9.3967488e-39
0.1851581 0.78193593 1.1684431 9.4893031e-39
0.19563757 0.78398353 1.1674571 9.212719e-39
0.20150858 0.78193593 1.1684431 9.2127162e-39
0.42631185 0.78398353 1.1674571 8.0177758e-39
0.4348343 0.7850073 1.1669639 8.2007377e-39
-0.23332573 0.79746342 1.1609653 9.3971089e-39
-0.22537145 0.7950747 1.1621158 9.397469e-39
-0.21476571 0.7950747 1.1621158 9.4896689e-39
-0.20416 0.79746342 1.1609654 9.5815002e-39
-0.19554287 0.79806066 1.1606777 9.5811428e-39
-0.18449524 0.79567194 1.1618283 9.6726196e-39
-0.1749943 0.79507482 1.1621158 9.6733315e-39
-0.16465372 0.79531366 1.1620009 9.7648096e-39
-0.15472981 0.79695159 1.1612118 9.6733315e-39
-0.14503315 0.79650801 1.1614255 9.8570052e-39
-0.13522285 0.7950747 1.1621157 9.8566437e-39
-0.12461715 0.79507482 1.1621158 9.857001e-39
-0.11401144 0.79507476 1.1621158 9.8573626e-39
-0.10473143 0.79507464 1.1621158 9.7655271e-39
-0.095451437 0.7950747 1.1621158 9.8577241e-39
-0.084845722 0.7950747 1.1621157 9.8577255e-39
-0.074240007 0.7950747 1.1621157 9.8577297e-39
-0.064960003 0.79507464 1.1621157 9.6733399e-39
-0.055680003 0.79507476 1.1621158 9.7658886e-39
-0.045074284 0.7950747 1.1621157 9.7658914e-39
-0.034760009 0.79552019 1.1632332 9.6733385e-39
-0.025297144 0.79730207 1.1677026 9.6736916e-39
-0.015977146 0.79730213 1.1677026 9.76589e-39
-0.0053257151 0.79730213 1.1677024 9.7655313e-39
0.0053257151 0.79730213 1.1677024 9.8573654e-39
0.015977144 0.79730213 1.1677024 9.8577325e-39
0.025297144 0.79730207 1.1677026 9.9491981e-39
0.034563813 0.7961632 1.1660311 9.9492023e-39
0.045106664 0.79445231 1.1635253 9.9495624e-39
0.055760004 0.79502434 1.1643598 9.7651726e-39
0.064960003 0.79388028 1.1626909 9.9502855e-39
0.073969357 0.79459637 1.1641624 7.0958349e-39
0.097194292 0.79730207 1.1677026 9.5807841e-39
0.10513143 0.79692298 1.1671451 9.3038399e-39
0.11446334 0.79701793 1.1672845 9.3967516e-39
0.12497239 0.79616404 1.1660308 9.4885871e-39
0.13571145 0.7967326 1.1668669 9.3967474e-39
0.14512573 0.79730207 1.1677024 9.3963858e-39
0.15444574 0.79730213 1.1677027 9.3963872e-39
0.16509716 0.79730213 1.1677024 9.3963942e-39
0.17560066 0.79676896 1.1679593 9.3042028e-39
0.18506858 0.79730207 1.1677024 9.1208878e-39
0.19438857 0.79730213 1.1677026 9.2127176e-39
0.20237714 0.79730201 1.1677027 9.2123589e-39
0.41940004 0.79730213 1.1677026 7.83303e-39
0.42472574 0.79730207 1.1677024 7.8330258e-39
0.4337334 0.7967335 1.1668665 8.0159835e-39
0.44070289 0.79610252 1.1682802 7.9241452e-39
0.52192003 0.79490292 1.1688579 7.3738553e-39
0.61911434 0.79490292 1.1688579 6.9128898e-39
0.62177718 0.79490292 1.1688579 6.8206942e-39
0.63509148 0.79610252 1.1682804 7.2827415e-39
0.64352381 0.79570264 1.1684729 8.1128805e-39
-0.17308572 0.80809832 1.1625034 9.6729727e-39
-0.16509718 0.80849814 1.1623108 9.6729755e-39
-0.15710858 0.80809826 1.1625034 9.5814861e-39
-0.14512573 0.80809832 1.1625035 9.6729741e-39
-0.13616885 0.80668062 1.1631861 9.764811e-39
-0.1251543 0.80689877 1.163081 9.9488421e-39
-0.11530173 0.80881804 1.1621568 9.6733385e-39
-0.10518287 0.80929792 1.1619257 9.6736958e-39
-0.095862865 0.80929786 1.1619257 9.7655285e-39
-0.084640831 0.80826974 1.1624209 9.7655285e-39
-0.07441207 0.80769849 1.1626959 9.7655313e-39
-0.06590572 0.80869806 1.1622145 9.6736944e-39
-0.057251431 0.80849814 1.1623108 9.7658872e-39
-0.045268577 0.80929786 1.1619257 9.8577269e-39
-0.03062286 0.80569911 1.1636587 9.6737e-39
-0.025297143 0.80569911 1.1636589 9.6736944e-39
-0.016357554 0.80518502 1.1639065 9.7655341e-39
-0.0047931438 0.80401963 1.1644676 9.7655313e-39
0.0055920007 0.80545926 1.1637743 9.7655299e-39
0.015710859 0.8054592 1.1637743 9.673693e-39
0.025297146 0.80569911 1.1636586 9.8577241e-39
0.034617148 0.80569923 1.1636585 9.7655299e-39
0.045268577 0.80569917 1.1636586 9.7651698e-39
0.055653721 0.80545938 1.1637743 9.6729783e-39
0.064707443 0.80521935 1.1638899 9.7651698e-39
0.072895721 0.8041997 1.1643809 8.8468204e-39
0.096942224 0.80461669 1.16492 9.3052692e-39
0.10518287 0.80569911 1.1636589 9.1201563e-39
0.11450285 0.80569917 1.1636587 9.3041888e-39
0.12477389 0.8051852 1.1639063 9.3045531e-39
0.13568468 0.80428141 1.1643416 9.2123603e-39
0.14512573 0.80449963 1.1642364 9.2123575e-39
0.15510859 0.8048507 1.1662872 9.3041902e-39
0.1642786 0.80476296 1.1657745 9.3049133e-39
0.17672706 0.8058725 1.1640875 8.9372126e-39
0.18506859 0.80569905 1.1636587 9.120522e-39
0.19438858 0.80569899 1.1636589 9.0286879e-39
0.20193002 0.80536276 1.1654856 8.9368482e-39
0.27678856 0.80795228 1.1692331 8.4773162e-39
0.28481144 0.80795228 1.1692331 8.2932879e-39
0.29417142 0.80795228 1.1692331 8.3858394e-39
0.30486858 0.80795228 1.1692331 8.3858366e-39
0.31556571 0.80795228 1.1692331 8.6613473e-39
0.32492572 0.80795228 1.1692331 8.2936438e-39
0.33428574 0.80795228 1.1692331 8.3851206e-39
0.34498286 0.80795228 1.1692331 7.9259459e-39
0.35567999 0.80795228 1.1692331 7.926299e-39
0.36504 0.80795228 1.1692331 7.9263004e-39
0.37440002 0.80795228 1.1692331 7.9263032e-39
0.38509715 0.80795228 1.1692331 7.7404784e-39
0.39579427 0.80795228 1.1692331 7.7419148e-39
0.40515432 0.80795228 1.1692331 7.9245082e-39
0.41549143 0.80678195 1.1684649 7.8323125e-39
0.42500335 0.80544448 1.1675869 7.9245082e-39
0.43440002 0.80600166 1.1679528 7.6490031e-39
0.44259432 0.80795228 1.1692331 7.6497191e-39
0.48805717 0.80795228 1.1692331 7.5568046e-39
0.49474287 0.80795228 1.1692331 7.6490059e-39
0.55491436 0.80795228 1.1692331 7.0976328e-39
0.56427431 0.80795228 1.1692331 7.0057959e-39
0.57497144 0.80795228 1.1692331 6.9128842e-39
0.58165711 0.80795228 1.1692331 7.0958391e-39
0.60572577 0.80795228 1.1692331 7.0057959e-39
0.61508572 0.80795228 1.1692331 7.0047309e-39
0.62578291 0.80795228 1.1692331 6.9132429e-39
0.63514292 0.80795228 1.1692331 7.0976356e-39
0.64450288 0.80795228 1.1692331 8.3891031e-39
-0.17574859 0.81169701 1.1607703 9.6729741e-39
-0.16509716 0.81169701 1.1607703 9.5807785e-39
-0.15415674 0.81525534 1.1619109 9.5807771e-39
-0.1439891 0.8172735 1.1641389 9.4885829e-39
-0.13478401 0.81710827 1.1648239 9.6726154e-39
-0.12587738 0.81641555 1.1636206 9.6729755e-39
-0.11474858 0.81584835 1.1621009 9.7655313e-39
-0.10513072 0.81628382 1.1627237 9.5814988e-39
-0.095862865 0.81169701 1.1607703 9.6733343e-39
-0.083996199 0.81406301 1.1618508 9.6733287e-39
-0.074773334 0.81642884 1.1629312 9.6736944e-39
-0.065129519 0.8166967 1.1628023 9.581496e-39
-0.055165716 0.81335753 1.1613026 9.673693e-39
-0.045268577 0.81169701 1.1607703 9.76589e-39
-0.030688573 0.81584829 1.1621009 9.5814932e-39
-0.023501145 0.81630415 1.1632133 9.4896661e-39
-0.015042857 0.81578308 1.1654621 9.3978306e-39
-0.0051814285 0.81533122 1.1656795 9.6733357e-39
0.0042509101 0.81661636 1.1644554 9.6733343e-39
0.015465308 0.81674832 1.164046 9.6733357e-39
0.023674289 0.81620198 1.1634442 9.5814946e-39
0.03377524 0.81446457 1.1616575 9.4893017e-39
0.045924898 0.81525528 1.1619109 9.6729783e-39
0.055100001 0.81671923 1.1633464 9.5807813e-39
0.064450286 0.81646574 1.1651335 1.0134308e-38
0.072651424 0.81571615 1.1654943 9.3996565e-39
0.09582857 0.81464529 1.16601 9.3967516e-39
0.10380936 0.81620198 1.163444 9.0279662e-39
0.1149143 0.81700957 1.1637615 9.3045531e-39
0.12658288 0.81437755 1.1661389 9.3045517e-39
0.13525715 0.81592208 1.165395 9.2127134e-39
0.14467888 0.81614447 1.165288 9.0283264e-39
0.15489744 0.81543428 1.16563 9.120515e-39
0.16601682 0.81543428 1.16563 9.1205206e-39
0.1746795 0.81649494 1.1651193 8.9368468e-39
0.18381526 0.81642896 1.1629312 8.8450155e-39
0.19515476 0.81729984 1.1641766 8.7528185e-39
0.20324573 0.8154819 1.1656072 8.8446512e-39
0.27732345 0.81132555 1.1676086 8.4776735e-39
0.28481144 0.81156653 1.1674926 8.2936452e-39
0.29336914 0.81084365 1.1678407 8.3854849e-39
0.30085716 0.81036174 1.1680728 8.2939969e-39
0.31556571 0.81036174 1.1680728 8.3858394e-39
0.32492572 0.81036174 1.1680729 8.2014482e-39
0.33543187 0.81414807 1.1662495 8.2929221e-39
0.34498286 0.81518072 1.1657523 8.1085365e-39
0.35568002 0.8151806 1.1657523 8.108898e-39
0.36504 0.81397599 1.1663324 8.2010923e-39
0.37440002 0.81036174 1.1680728 8.1092526e-39
0.38567024 0.81363177 1.1664981 7.8330328e-39
0.39579427 0.81397581 1.1663322 8.0170625e-39
0.40515429 0.81156653 1.1674926 7.9252256e-39
0.41504917 0.81228936 1.1671445 7.6486387e-39
0.42587999 0.81427711 1.1661873 7.8323111e-39
0.43590856 0.8151806 1.1657523 7.8323139e-39
0.44259435 0.81518072 1.1657522 7.9248683e-39
0.48805717 0.81036174 1.1680728 7.464609e-39
0.49474287 0.81036174 1.1680728 7.5564501e-39
0.5549143 0.81156653 1.1674927 7.09763e-39
0.56427431 0.81156653 1.1674925 6.9132415e-39
0.57416916 0.81084365 1.1678407 6.8210473e-39
0.61374855 0.81036174 1.1680729 6.9132429e-39
0.62845719 0.81036174 1.1680728 6.9132429e-39
0.63514292 0.81036174 1.1680729 7.2820268e-39
0.64539433 0.81357443 1.1665257 8.5742034e-39
-0.17463087 0.82385463 1.161575 9.3971061e-39
-0.16580573 0.82401532 1.1614976 9.4885843e-39
-0.15510857 0.82361376 1.1616911 9.4885843e-39
-0.14479785 0.8258155 1.164793 9.4885843e-39
-0.13514954 0.82420123 1.162518 9.488943e-39
-0.12569144 0.82361376 1.1616911 9.5815002e-39
-0.11499429 0.82361376 1.161691 9.765174e-39
-0.10429714 0.82361376 1.161691 9.581147e-39
-0.095605716 0.82421607 1.1614009 9.5814988e-39
-0.084240004 0.82401532 1.1614976 9.4892975e-39
-0.074879996 0.82361376 1.1616911 9.5811414e-39
-0.064247139 0.82449371 1.1629322 9.4893003e-39
-0.055020005 0.82654774 1.1658278 9.58114e-39
-0.045462862 0.82361376 1.161691 9.4900136e-39
-0.034765717 0.82401532 1.1614976 9.4900206e-39
-0.024273653 0.825167 1.1646428 9.4896647e-39
-0.01416635 0.82526422 1.1668159 9.3978278e-39
-0.0061668577 0.82405376 1.164143 9.4893003e-39
0.0053485716 0.82361376 1.161691 9.6733273e-39
0.014720954 0.82420123 1.162518 9.5815044e-39
0.024120001 0.82537621 1.1641721 9.58114e-39
0.034765713 0.82361376 1.1616911 9.3971061e-39
0.045489289 0.82405436 1.1623112 9.58114e-39
0.054977149 0.82596183 1.165 9.3971061e-39
0.064248569 0.82449496 1.1629316 9.9502785e-39
0.072205715 0.8236137 1.161691 9.4914892e-39
0.095790491 0.82552028 1.1674325 9.3971145e-39
0.10474286 0.82713342 1.1666555 8.9361294e-39
0.11548572 0.82713342 1.1666555 9.3045503e-39
0.12488572 0.82471365 1.1678209 9.3045531e-39
0.13313371 0.82405376 1.164143 9.2123617e-39
0.14437333 0.82555872 1.1651942 9.0283278e-39
0.15577145 0.82713342 1.1666555 9.0283236e-39
0.16493908 0.82596195 1.165 8.9368594e-39
0.17457144 0.82713342 1.1666555 8.8442939e-39
0.18471858 0.82449365 1.1629322 8.7528199e-39
0.19564001 0.82537365 1.1641732 8.8442953e-39
0.20386286 0.82381278 1.164259 8.9361336e-39
0.25514287 0.82108402 1.1695688 8.5691517e-39
0.26857144 0.82350385 1.1684036 8.4769547e-39
0.27528572 0.82229394 1.1689862 8.5691503e-39
0.28411025 0.82212108 1.1690695 8.3851262e-39
0.29274285 0.82108402 1.1695688 8.5691517e-39
0.31422859 0.82108402 1.1695688 8.3847646e-39
0.32550859 0.82301992 1.1686367 8.2007349e-39
0.33504289 0.82572198 1.1673354 8.1088952e-39
0.34511432 0.82713336 1.1666557 8.0159821e-39
0.3545143 0.82713336 1.1666555 8.0159835e-39
0.36525717 0.82531857 1.1675296 8.1081778e-39
0.37465715 0.82108402 1.1695688 8.0174171e-39
0.38439286 0.82380629 1.1682578 7.8333929e-39
0.39480004 0.82592356 1.1672382 7.9245096e-39
0.40543962 0.82443452 1.1679554 7.9245124e-39
0.4146072 0.8232013 1.1685492 7.7411959e-39
0.42427346 0.82438451 1.1670281 7.7404756e-39
0.43536952 0.8241393 1.162178 7.8319538e-39
0.44733033 0.82449371 1.1665949 7.6486458e-39
0.45522863 0.82471365 1.1678209 7.6472066e-39
0.46462858 0.82471359 1.1678209 7.8312377e-39
0.47134289 0.82713342 1.1666555 7.5553725e-39
0.48656195 0.82189059 1.1691804 7.7394008e-39
0.49417144 0.82471377 1.1678209 7.3734938e-39
0.50464576 0.82447165 1.1679375 7.1891011e-39
0.51604086 0.82419521 1.1680706 7.2809422e-39
0.5250572 0.82471365 1.1678209 7.280945e-39
0.53445715 0.82471377 1.1678209 7.1883893e-39
0.54520005 0.82471371 1.1678209 7.0961992e-39
0.55594283 0.82471365 1.1678209 7.0047169e-39
0.5653429 0.82471371 1.1678209 6.7288503e-39
0.57474291 0.82471365 1.1678209 6.8210459e-39
0.58548576 0.82471371 1.1678209 6.912887e-39
0.59488577 0.82471371 1.1678209 6.821406e-39
0.60428578 0.82471365 1.1678209 6.9136045e-39
0.61502856 0.82471365 1.1678208 6.821406e-39
0.6257714 0.82471371 1.1678209 6.7295733e-39
0.63517159 0.82471365 1.1678209 7.1909088e-39
0.64447361 0.82424134 1.1664815 7.836288e-39
0.65304196 0.82353872 1.166167 4.150625e-39
-0.20277144 0.83802229 1.1614118 9.1219569e-39
-0.17457142 0.83802229 1.1614118 9.3971075e-39
-0.16363674 0.83491123 1.1629101 9.3971061e-39
-0.15577143 0.83439279 1.1631595 9.3971089e-39
-0.14502858 0.83439273 1.1631595 9.3971103e-39
-0.12220001 0.83802229 1.1614118 9.3971047e-39
-0.1148143 0.83540106 1.1626742 9.4893031e-39
-0.10512653 0.83491123 1.1629099 9.3978264e-39
-0.094671436 0.83741736 1.1617031 9.5807799e-39
-0.085942857 0.83802229 1.1614118 9.3971075e-39
-0.075199999 0.83681238 1.1619945 9.5811456e-39
-0.064073473 0.83491123 1.1629099 9.3974704e-39
-0.055057149 0.83439273 1.1631596 9.4893045e-39
-0.045657147 0.83439267 1.1631595 9.581496e-39
-0.035361905 0.83452708 1.1630949 9.58114e-39
-0.023902858 0.83463472 1.163043 9.3978278e-39
-0.015019482 0.83433205 1.1636933 9.3056307e-39
-0.0057113096 0.83567047 1.163238 9.3971075e-39
0.005371429 0.83681238 1.1619945 9.305272e-39
0.015107144 0.83499765 1.1628683 9.4893017e-39
0.024176531 0.83408588 1.1637037 9.488943e-39
0.034924209 0.83342975 1.1640859 9.3967488e-39
0.045713495 0.83416981 1.1651168 9.3971061e-39
0.055301305 0.83406276 1.1633185 9.3049119e-39
0.06221905 0.83479589 1.1629654 9.0283264e-39
0.076075003 0.83600366 1.1665461 9.208829e-40
0.094606064 0.83555239 1.1666374 9.6740615e-39
0.10480635 0.8336767 1.1644294 8.7517367e-39
0.11555238 0.8336767 1.1644293 9.1208751e-39
0.12512989 0.8340627 1.1633185 9.1205206e-39
0.13428572 0.83491117 1.1629099 9.0283264e-39
0.14502858 0.83439267 1.1631595 8.9364895e-39
0.15554002 0.83467031 1.1633959 8.9361294e-39
0.16510192 0.8355481 1.167043 8.8446568e-39
0.17498414 0.83515543 1.1664922 8.9361308e-39
0.18542145 0.83367586 1.1644297 8.8443009e-39
0.19494446 0.83417058 1.1651164 8.6606257e-39
0.20435952 0.83416837 1.1651175 8.6606271e-39
0.21561909 0.83613729 1.1678692 8.6609858e-39
0.22471547 0.83583379 1.1680152 8.6609802e-39
0.25470006 0.83613735 1.1678692 8.5687888e-39
0.26376581 0.83591652 1.1679754 8.2018013e-39
0.27087143 0.833709 1.1690385 8.2932907e-39
0.30725718 0.833709 1.1690385 8.3858394e-39
0.31444448 0.83451843 1.1686487 8.1096127e-39
0.32477623 0.833709 1.1690385 8.2932893e-39
0.33510894 0.83351493 1.1670511 8.0170597e-39
0.34590161 0.83554024 1.1675401 8.0163423e-39
0.35545754 0.83540082 1.1668363 7.9245054e-39
0.36506245 0.83581001 1.1674101 7.8326671e-39
0.37733334 0.833709 1.1690385 8.1085337e-39
0.38518971 0.83564562 1.167181 8.0159821e-39
0.39480004 0.83318281 1.1637422 7.9237879e-39
0.40499949 0.83482516 1.1660345 7.8330328e-39
0.41506669 0.83613747 1.1678691 7.8323111e-39
0.42490956 0.83474165 1.1641016 7.6479227e-39
0.43477586 0.83523035 1.1627563 7.6475611e-39
0.44534001 0.83498442 1.1639847 7.7397568e-39
0.45542255 0.83555478 1.1666362 7.6479185e-39
0.46480867 0.83471614 1.1663337 7.6486458e-39
0.47457752 0.83609027 1.1673872 7.5568089e-39
0.48514292 0.83613747 1.1678691 7.5568046e-39
0.49431628 0.83342975 1.1640857 7.5571746e-39
0.50397044 0.83384031 1.1646589 7.2802234e-39
0.51479053 0.83613729 1.1678692 7.1883851e-39
0.52557147 0.83613741 1.1678691 7.2805807e-39
0.5351221 0.83457679 1.166098 7.2805877e-39
0.54497802 0.83382475 1.1642869 7.1891095e-39
0.55594289 0.83318281 1.1637422 6.9132415e-39
0.56571841 0.83452791 1.1662658 6.8210445e-39
0.57433492 0.83454913 1.1656456 6.9132373e-39
0.58544505 0.8340528 1.1646041 6.9128828e-39
0.59582645 0.83449501 1.1655768 6.8210473e-39
0.60390961 0.83353263 1.1646837 6.9139618e-39
0.61552423 0.83568347 1.1672338 6.9136016e-39
0.62579727 0.83441675 1.1654603 6.8214074e-39
0.6351338 0.83443803 1.1636002 7.3756602e-39
0.64298451 0.83406276 1.1633185 8.1128735e-39
-0.20277143 0.84044206 1.1602466 9.1215982e-39
-0.19202857 0.840442 1.1602465 9.3049091e-39
-0.18934287 0.840442 1.1602465 9.3049091e-39
-0.17457144 0.840442 1.1602465 9.3049133e-39
-0.16517144 0.84044206 1.1602466 9.1212451e-39
-0.15577143 0.840442 1.1602465 9.3963956e-39
-0.14502858 0.840442 1.1602465 9.3045531e-39
-0.13831429 0.840442 1.1602465 9.3049091e-39
-0.12220001 0.840442 1.1602465 9.3056153e-39
-0.11475905 0.84200937 1.1606016 9.3971033e-39
-0.10562573 0.84200937 1.1606015 9.4892975e-39
-0.095342867 0.84044206 1.1602466 9.4893017e-39
-0.085942864 0.840442 1.1602465 9.3056293e-39
-0.075200006 0.840442 1.1602465 9.6729853e-39
-0.063185714 0.84264964 1.1610332 9.4893045e-39
-0.054057147 0.84309113 1.1611906 9.3974704e-39
-0.045657143 0.840442 1.1602465 9.4893031e-39
-0.033607937 0.84264964 1.1610332 9.3974732e-39
-0.024601733 0.84503794 1.1620692 9.3974704e-39
-0.014135715 0.84449846 1.1624551 9.2134379e-39
-0.0057755108 0.84515679 1.1635255 9.3056335e-39
0.0053904764 0.84585059 1.1631916 9.3052706e-39
