# .PCD v0.7 - Point Cloud Data file format
VERSION 0.7
FIELDS x y z
SIZE 4 4 4
TYPE F F F
COUNT 1 1 1
WIDTH 1479
HEIGHT 1
VIEWPOINT 0 0 0 1 0 0 0
POINTS 1479
DATA ascii
0.14091277 0.086053602 1.2270001
-0.20430818 0.094009355 1.2260772
-0.19727805 0.098639026 1.223
0.13707902 0.095086284 1.2247778
0.14091277 0.09143196 1.2270001
-0.2011503 0.10003731 1.2270001
-0.19612114 0.10518429 1.2251333
-0.18905813 0.10757372 1.223
0.13459931 0.10381019 1.2250001
-0.19308279 0.11312463 1.2270002
-0.18713042 0.1157176 1.225
0.12659873 0.11544053 1.2238001
0.13123176 0.11294536 1.2270001
-0.18367465 0.1249555 1.2252223
-0.17831068 0.12681316 1.2238001
0.11901013 0.12758744 1.223
0.12285169 0.12392737 1.2256669
-0.18178824 0.13123176 1.2270001
-0.17652835 0.13517906 1.2249999
0.11717299 0.1343697 1.2262001
-0.17414255 0.14448583 1.2256668
-0.16725747 0.1490307 1.223
0.10864267 0.14951813 1.2270001
0.11200227 0.14423379 1.2255001
-0.17103153 0.15274516 1.2270001
-0.16579942 0.15545365 1.2244545
0.099711195 0.15868017 1.223
0.10486892 0.15473509 1.2247778
-0.16289783 0.1639735 1.2265002
-0.15813997 0.16586657 1.2238001
0.097995728 0.16575645 1.223
0.10132811 0.16457753 1.2270001
-0.15496834 0.17532836 1.2260588
-0.14849462 0.17744303 1.223
0.094890982 0.17437893 1.2253336
-0.15328299 0.18232608 1.2270001
-0.14562875 0.18567774 1.2252859
0.086007386 0.18627127 1.2241429
0.092358589 0.18149191 1.2250001
-0.14342269 0.19362062 1.2270002
-0.13647108 0.19681855 1.2230002
0.077410199 0.19663475 1.223
0.08170709 0.1942331 1.2263335
-0.13379298 0.20435522 1.2262728
0.075733922 0.20499465 1.2253335
0.080675259 0.20330164 1.2270001
-0.12500636 0.21521187 1.2250003
0.067577861 0.2162192 1.2235715
0.072069898 0.21405834 1.2270001
-0.12270188 0.22521247 1.2265557
-0.11667087 0.22603154 1.2229999
0.064605214 0.22603461 1.2252859
-0.11418539 0.23374125 1.2260772
-0.10697701 0.23792237 1.2243335
0.057492428 0.23655587 1.2241429
0.062133756 0.23283933 1.2262001
-0.11079402 0.24310142 1.2270001
-0.10548075 0.24490581 1.2248462
-0.099711195 0.24874189 1.223
0.048247352 0.24981406 1.223
0.052611645 0.2452549 1.2247145
-0.10254721 0.25349957 1.2270002
-0.098334819 0.2560305 1.2236668
0.045605514 0.25618851 1.224
0.050556492 0.25170678 1.2270001
-0.093032397 0.26276666 1.2254002
-0.087445922 0.26792285 1.2254002
0.039734919 0.26848093 1.2250001
0.043225583 0.26338026 1.2250001
-0.082403541 0.27483565 1.2252859
-0.077195764 0.27769029 1.223
0.036932915 0.27526176 1.2246002
-0.080675252 0.28182554 1.2270001
-0.075464584 0.28558382 1.2262002
-0.069804579 0.28781143 1.2250001
0.028294418 0.28832603 1.2256669
0.032782514 0.28428328 1.2260002
-0.072607726 0.29312009 1.2270001
-0.06689243 0.29517388 1.2250001
0.026708279 0.29515454 1.2255715
-0.065246202 0.30388182 1.2267777
-0.05828635 0.30537689 1.2236668
0.02757068 0.30468836 1.2252223
-0.061313193 0.31301999 1.2270001
-0.055692285 0.3156423 1.2253156
0.02472697 0.31464273 1.2263335
-0.052691348 0.32367185 1.2266002
-0.046614606 0.32534066 1.2238889
0.017154614 0.328082 1.223
0.02133118 0.323939 1.2252859
-0.050556492 0.33023071 1.2270001
-0.044664335 0.33335781 1.2262729
-0.036117792 0.33863029 1.2236668
0.0083628744 0.33858916 1.223
0.014955598 0.33436155 1.225154
-0.035045803 0.34334528 1.2262002
-0.027106751 0.34700328 1.2245002
0.0069772447 0.34561533 1.2243334
0.012370206 0.34260091 1.2270001
-0.022805121 0.3537499 1.2256666
-0.015734999 0.35793981 1.2236668
-0.0041359882 0.35719723 1.2235715
0.0030304778 0.35436311 1.2259094
-0.013983713 0.36342284 1.2270001
-0.0065673054 0.3629553 1.2261113
-0.22321336 -0.16145043 1.2360001
-0.21887912 -0.16145043 1.2360001
-0.23221149 -0.15660773 1.2320001
-0.2236525 -0.15666501 1.2324446
-0.2156883 -0.15647323 1.2345715
-0.20543227 -0.15677956 1.2333336
-0.19567798 -0.15568022 1.2332002
-0.18459471 -0.15478352 1.2334288
-0.1747704 -0.15647314 1.2335386
-0.16488582 -0.15515715 1.2333336
-0.1540736 -0.15299469 1.2333336
-0.14496092 -0.15253708 1.2340002
-0.1354097 -0.1525493 1.2328573
-0.12491021 -0.15593016 1.2342223
-0.11525089 -0.15563366 1.2337779
-0.10493525 -0.15578192 1.2340002
-0.095198989 -0.15578191 1.2340001
-0.08454258 -0.15654568 1.2332002
-0.074195012 -0.15596154 1.2330911
-0.065187767 -0.15594497 1.2324446
-0.0550992 -0.15557854 1.2324003
-0.044569418 -0.15653983 1.2345457
-0.034709945 -0.15507086 1.2338184
-0.023973076 -0.15202352 1.2348573
-0.015145293 -0.15145469 1.2340002
-0.0054121893 -0.15160093 1.2352002
0.005412735 -0.15141554 1.2346667
0.015145293 -0.15145469 1.2340002
0.024109211 -0.15142751 1.2360001
0.034673922 -0.15061484 1.2360001
0.0433424 -0.15061484 1.2360001
0.05742868 -0.15061484 1.2360001
0.061762922 -0.15061484 1.2360001
-0.011880587 -0.14796731 1.2320001
-0.005400267 -0.14796732 1.2320002
0.0064803204 -0.14796731 1.2320001
0.025577044 -0.14768738 1.2326669
0.034872487 -0.14733744 1.2335001
0.046108581 -0.14732735 1.2326669
0.055135675 -0.1470314 1.2332002
0.06525673 -0.14674076 1.2337779
0.07408265 -0.14625041 1.2329234
0.085951105 -0.14636073 1.2338463
0.094862357 -0.14617828 1.2334547
0.10475625 -0.14586969 1.234182
0.11461424 -0.14475931 1.2353334
0.12403899 -0.14401142 1.2351112
0.13522583 -0.14280026 1.2340002
0.14507781 -0.14291507 1.2350001
0.15464726 -0.14383599 1.2336001
0.16509187 -0.14362808 1.2331432
0.17424862 -0.14220703 1.2320002
0.18596356 -0.14236867 1.2342858
0.19577859 -0.14315477 1.2352002
0.20433494 -0.14446212 1.2343335
0.21527953 -0.14496388 1.2340001
0.22489423 -0.14380489 1.2333336
0.23427604 -0.14337972 1.2343335
0.24416219 -0.14266875 1.2360001
0.13932689 -0.13932689 1.2320001
0.14472716 -0.13932689 1.2320001
0.15444764 -0.13932689 1.2320002
0.16308807 -0.1393269 1.2320001
0.18684924 -0.1393269 1.2320001
0.19548966 -0.13932689 1.2320002
0.20196998 -0.13932689 1.2320001
0.23437159 -0.13932689 1.2320002
0.24459924 -0.13542044 1.2336843
0.25030237 -0.13652857 1.2360001
0.23869181 -0.12312609 1.2320001
0.2442937 -0.12477297 1.2345717
0.22616319 -0.11210954 1.2320002
0.23503286 -0.11491515 1.2327621
0.24256267 -0.11532176 1.2360001
0.21925084 -0.10152502 1.2320001
0.22487096 -0.10486406 1.2332003
0.23406209 -0.10594397 1.235158
0.24163389 -0.10943956 1.2360001
0.21842229 -0.094137982 1.2342858
0.22462559 -0.096407838 1.2356365
0.23079827 -0.097520404 1.2360001
0.21393599 -0.08527831 1.234182
0.21119952 -0.075324379 1.2333335
0.20867591 -0.063789777 1.2333335
0.2112942 -0.067180723 1.2360001
0.19737975 -0.052112572 1.2320002
0.20379813 -0.055362482 1.2328891
0.1892139 -0.042165332 1.2333335
0.19459774 -0.045940597 1.2351431
0.20118098 -0.048037827 1.2360001
0.18777193 -0.033550475 1.2345001
0.18394116 -0.025731113 1.2347695
-0.30133489 -0.011880587 1.2320001
-0.29917479 -0.011880587 1.2320001
-0.282974 -0.011880587 1.2320001
-0.27973384 -0.011880587 1.2320001
0.17789252 -0.01448043 1.2328001
0.18095453 -0.017336961 1.2360001
-0.29314491 -0.0049210228 1.2328891
-0.28482419 -0.0059424858 1.2330002
-0.2775439 -0.0055814451 1.232667
0.16848832 -0.0010800534 1.2320001
0.17552921 -0.0069577284 1.2348573
-0.27357611 0.0054098307 1.2334547
-0.26839328 0.0081004007 1.2320001
0.1654567 0.0065723034 1.2335387
0.17011891 0.0021671201 1.2360001
-0.27197358 0.01191916 1.2360001
-0.26749673 0.015268415 1.2342223
0.15821965 0.015859485 1.2333335
0.16302671 0.014724142 1.2348001
-0.26292714 0.023445185 1.2342224
-0.25732672 0.026397688 1.2325716
0.15582313 0.024890026 1.2343335
0.162534 0.02058764 1.2360001
-0.25390214 0.035011638 1.2332309
-0.24841228 0.039961975 1.2320001
0.14688726 0.037801869 1.2320001
0.15125598 0.033934601 1.2353334
-0.25344732 0.044556785 1.2350771
-0.24733223 0.046442296 1.2320002
0.14590511 0.045267858 1.2343335
0.15061484 0.04117528 1.2360001
-0.25354955 0.053019632 1.2342223
-0.24559225 0.054982562 1.2327502
0.13752702 0.056721933 1.2334547
0.14280951 0.053690076 1.2354287
-0.24269508 0.064123347 1.2345002
-0.23869181 0.065883249 1.2320001
0.13566144 0.065124452 1.2335557
0.14535183 0.067335524 1.2360001
0.15133721 0.067541912 1.2360001
-0.2349572 0.072842591 1.2328001
-0.22573116 0.07812386 1.2320001
0.12852636 0.072363578 1.2320001
0.1355467 0.071823545 1.2320004
0.14498787 0.074653946 1.2342002
0.15350433 0.075126849 1.2360001
-0.22357455 0.082894094 1.2344002
-0.21720938 0.087891683 1.2326669
0.14568733 0.085140772 1.2332501
0.15234853 0.084084257 1.2360001
-0.21333472 0.094765916 1.2340002
-0.20773028 0.097564816 1.2320001
0.14414574 0.094796434 1.2344002
-0.2112942 0.10185464 1.2360001
-0.20521697 0.1047398 1.2331766
0.13814645 0.10570277 1.2335001
0.14266875 0.10149345 1.2360001
-0.20292799 0.11413498 1.2352002
-0.19666789 0.11694033 1.2320004
0.12852636 0.11988593 1.2320001
0.13429014 0.11505333 1.2342223
-0.2004586 0.12027517 1.2360001
-0.19412906 0.12384301 1.2355556
-0.18870007 0.12601769 1.2328001
0.12689264 0.12617262 1.2324446
0.13165253 0.12190051 1.2360001
-0.18617554 0.13528885 1.2334119
0.11902189 0.1375988 1.2320002
0.12384039 0.13401534 1.2348002
-0.18255396 0.144816 1.2337779
-0.1782088 0.14688726 1.2320001
0.11642352 0.14559725 1.2325002
0.12099754 0.14447467 1.2360001
-0.18095453 0.15061484 1.2360001
-0.17520741 0.15465656 1.2336669
-0.16956837 0.15876785 1.2320001
0.10854538 0.15714777 1.2320001
0.11360707 0.15373993 1.234182
-0.17228606 0.16423674 1.2360001
-0.16668823 0.16572818 1.2320002
0.10601941 0.16479522 1.2340002
0.11160668 0.16145043 1.2360001
-0.17011891 0.17120248 1.2360001
-0.16416663 0.17436554 1.234286
0.097204804 0.1782088 1.2320001
0.10200323 0.17424147 1.2345002
-0.16199866 0.1814817 1.2346668
-0.15551716 0.18633202 1.2333336
0.088564381 0.18900934 1.2320001
0.095061839 0.18423636 1.2337779
-0.15226561 0.19337425 1.2340001
-0.14616722 0.19764976 1.2320002
0.086343788 0.19539236 1.2336669
0.092102602 0.19179012 1.2360001
-0.14429744 0.20409822 1.234182
-0.13803644 0.20723584 1.2333335
0.078843892 0.2084503 1.2320001
0.084166661 0.20532551 1.2340001
-0.13288736 0.21491721 1.234182
-0.12852636 0.21817079 1.2320001
0.076253563 0.21604949 1.2337501
0.08201392 0.21464393 1.2350001
-0.13169171 0.22441733 1.2346668
-0.12749846 0.22474359 1.2325002
0.06809859 0.22483608 1.233
0.071876153 0.22357456 1.2360001
-0.12423211 0.23418084 1.2344002
-0.11670946 0.2377409 1.2326669
0.064478837 0.23629968 1.2326669
-0.113874 0.24427693 1.2337145
-0.1090854 0.24949235 1.2320001
0.057713427 0.24598002 1.2328002
0.062304705 0.24325922 1.2360001
-0.11160668 0.25138593 1.2360001
-0.10671689 0.25466621 1.2331431
0.048602402 0.25813276 1.2320001
0.05474909 0.25517416 1.2348573
-0.10077108 0.2633051 1.2360001
-0.0948897 0.26651579 1.2328001
0.047454167 0.26610342 1.2333335
0.051794168 0.26287168 1.2360001
-0.092102602 0.27305713 1.2360001
-0.087354921 0.27676263 1.2332002
0.039961975 0.27865377 1.2320001
0.043657999 0.27456734 1.2346668
-0.085116573 0.28484681 1.2334287
0.037321843 0.28549409 1.2320002
0.041391995 0.2849763 1.2360001
-0.081857875 0.29353082 1.2340002
-0.076683782 0.29601774 1.2320002
0.034505397 0.2946572 1.2322356
0.040091719 0.29472831 1.2360001
-0.081266999 0.3001461 1.2360001
-0.07431636 0.30522728 1.2330003
-0.067323327 0.3092553 1.2320001
0.029161442 0.30997533 1.2320001
0.034513198 0.3046976 1.2344446
-0.071800172 0.31389344 1.2346668
-0.06558492 0.31578344 1.2326156
0.027927095 0.31645566 1.2320002
0.033136602 0.31446239 1.2352002
-0.06381911 0.32380658 1.2338183
-0.057002816 0.32701617 1.2320002
0.026578031 0.32523936 1.2337145
0.031423241 0.32181731 1.2360001
-0.061762922 0.33048579 1.2360001
-0.054592494 0.33467463 1.2338669
-0.046982326 0.3375167 1.2320001
0.018360907 0.33805671 1.2320001
0.022475397 0.33397809 1.2337779
-0.05164969 0.34204382 1.2360001
-0.044726662 0.3441101 1.2343335
-0.037184697 0.3479315 1.2320002
0.015863867 0.34536374 1.2336669
0.02058764 0.34132141 1.2360001
-0.04117528 0.3543241 1.2360001
-0.03474734 0.35435724 1.2337501
-0.026761323 0.35725769 1.2320002
0.0082839169 0.35594654 1.2324446
0.01234487 0.35452962 1.2352002
-0.031423241 0.36082548 1.2360001
-0.024675494 0.36541942 1.2349476
-0.016920837 0.36685812 1.2320002
-0.0032419134 0.36697704 1.2330002
0.0045486148 0.36484599 1.2349335
-0.022032388 0.37310585 1.2360001
-0.014901714 0.37369847 1.2344617
-0.0068034353 0.37410325 1.2348573
-0.21432483 -0.16210356 1.2410001
-0.20515616 -0.16310045 1.2438573
-0.19536954 -0.16087972 1.245
-0.18390931 -0.16208032 1.245
-0.17463198 -0.16262604 1.245
-0.16387342 -0.16200237 1.2450001
-0.15498589 -0.16044314 1.245
-0.14516285 -0.16044314 1.245
-0.13599467 -0.16218947 1.245
-0.12879109 -0.16262604 1.245
-0.11787659 -0.16262604 1.245
-0.093137071 -0.16335368 1.245
-0.084316634 -0.16317952 1.2436666
-0.075310044 -0.16262604 1.245
-0.061121196 -0.16153459 1.245
-0.0545725 -0.16262604 1.245
-0.044749446 -0.16262604 1.245
-0.0349264 -0.16262604 1.245
-0.025103351 -0.16044314 1.245
-0.0021829 -0.16044314 1.245
-0.21650073 -0.15883973 1.2410001
-0.20126951 -0.15992767 1.2410001
-0.19909362 -0.15992767 1.2410001
-0.18386243 -0.15992767 1.2410001
-0.17951065 -0.15992767 1.2410001
-0.16645533 -0.15992767 1.2410001
-0.15577225 -0.15795517 1.2426001
-0.14488161 -0.15795517 1.2426001
-0.13443872 -0.15868431 1.2410001
-0.12511347 -0.15992767 1.2410001
-0.115322 -0.15992767 1.2410001
-0.1055305 -0.15992767 1.2410001
-0.094651066 -0.15992767 1.2410001
-0.087035462 -0.15992767 1.2410001
-0.076156035 -0.15992767 1.2410001
-0.065276593 -0.15992767 1.2410001
-0.055485111 -0.15992767 1.2410001
-0.045330971 -0.15992767 1.2410001
-0.034814186 -0.15992767 1.2410001
-0.025032166 -0.15671468 1.2414001
-0.015231207 -0.15666384 1.2410001
-0.0054484839 -0.15691806 1.243
0.0050101504 -0.15643205 1.2426
0.015975205 -0.15647069 1.2423334
0.025628328 -0.15649888 1.2440001
0.034599084 -0.15574406 1.2439091
0.044489369 -0.15432537 1.2445556
0.053788759 -0.15300435 1.2436668
0.065133922 -0.15289307 1.2435
0.074916206 -0.15228643 1.243
0.084509045 -0.15236855 1.2427144
0.16262606 -0.15171155 1.2450001
0.19318664 -0.15171155 1.2450001
0.20410115 -0.15171155 1.2450001
0.22811303 -0.15171155 1.245
0.23466174 -0.15171157 1.245
0.10678501 -0.1482005 1.243
0.11614387 -0.14886457 1.244
0.1256375 -0.14853254 1.2435001
0.13512239 -0.14820048 1.243
0.14460783 -0.14799955 1.2423334
0.15557592 -0.14904824 1.2410001
0.16536739 -0.14904824 1.2410001
0.17489544 -0.1471108 1.243
0.1845696 -0.1473316 1.2433333
0.1944699 -0.14824131 1.2423334
0.20562129 -0.14904824 1.2410001
0.21541278 -0.14904824 1.2410001
0.22534804 -0.14914432 1.2418002
0.23584907 -0.14840302 1.2416668
0.24565999 -0.14761649 1.2426667
0.25531471 -0.14524648 1.243737
0.25476432 -0.13628632 1.2436666
0.24899657 -0.12258999 1.243
0.25158495 -0.12742379 1.2423334
0.24761714 -0.11563723 1.2427144
0.23753428 -0.10190403 1.2410001
0.24271794 -0.10519659 1.2427778
0.22625276 -0.092023991 1.2414446
0.23523803 -0.094936527 1.243
0.24121043 -0.097139046 1.2450001
0.2183824 -0.084259413 1.2418001
0.22408308 -0.08538498 1.245
0.21720593 -0.074944854 1.2441429
0.22156434 -0.079675846 1.245
0.21439196 -0.065019235 1.2450001
0.20779717 -0.055485111 1.2410001
0.21064985 -0.057846848 1.245
0.19676785 -0.04102245 1.2423334
0.20322931 -0.045767263 1.243
0.1946847 -0.035318095 1.2434
0.1874284 -0.022881292 1.243
0.1925032 -0.027686361 1.2434001
0.18389122 -0.01510384 1.2432858
-0.28504115 -0.0010879433 1.2410001
0.17643617 -0.0029023511 1.2423334
0.18244076 -0.0076307985 1.2436666
-0.2931284 0.0021811468 1.243
-0.2844404 0.0045810509 1.2431332
-0.27887616 0.005802365 1.2410002
0.1732951 0.004721045 1.2432222
-0.28137583 0.01375227 1.245
-0.27521738 0.01578453 1.2416668
0.1679965 0.015966438 1.2416668
0.17099063 0.014160797 1.2423334
-0.27364835 0.023350364 1.2445999
-0.26710805 0.026800577 1.2426001
0.15920238 0.027198583 1.2410001
0.16433187 0.024100443 1.2432222
-0.2633633 0.034575231 1.2435716
0.15631475 0.035318092 1.2434
0.16044316 0.033834949 1.2450001
-0.2619409 0.044299636 1.2435455
-0.2578426 0.04460568 1.2410001
0.14904824 0.048957448 1.2410001
0.15500523 0.044827107 1.2435883
-0.26122686 0.052941371 1.2426001
-0.25454205 0.057998393 1.2415714
-0.24913904 0.059836887 1.2410001
0.14713797 0.055284005 1.2414001
0.152803 0.054572497 1.245
-0.25649074 0.060029745 1.245
-0.24696314 0.064913951 1.2410001
0.14612293 0.062621616 1.2423334
0.15504652 0.064755365 1.2429999
0.16306262 0.067451611 1.245
-0.24240504 0.072323546 1.2436666
-0.23601618 0.077672452 1.2435
-0.22955604 0.079419859 1.2410001
0.15930599 0.074135572 1.2410001
0.16324973 0.074374527 1.2450001
-0.2317512 0.084769286 1.245
-0.22617269 0.086767495 1.2423334
0.15679094 0.085745677 1.2420001
0.16044314 0.084041648 1.245
-0.22338538 0.092464007 1.2445
-0.21794723 0.097325958 1.2418001
0.14827397 0.097325958 1.2418001
0.15300319 0.093038879 1.2436666
-0.21532582 0.10439365 1.243
-0.20997307 0.10879433 1.2410001
0.14466752 0.10566516 1.2426001
-0.2117413 0.11351081 1.245
-0.20724636 0.11600366 1.2432858
0.13816881 0.11640994 1.2410001
0.1421048 0.11455709 1.2445
-0.2041188 0.12492155 1.244077
-0.19742951 0.12771697 1.2425001
0.13561912 0.12573734 1.2428669
0.14079703 0.12224239 1.245
-0.20191824 0.13206545 1.245
-0.19568178 0.13461992 1.2437693
0.12834112 0.13611917 1.242143
0.13337672 0.13446817 1.2444999
-0.19213793 0.14308055 1.2435
-0.18759 0.14658979 1.2416668
0.12622525 0.1443851 1.243
-0.18451951 0.15517479 1.2431539
-0.17896669 0.15829575 1.2410001
0.11692157 0.15654653 1.2418001
0.12174883 0.15227671 1.2436666
-0.18281788 0.16371749 1.245
-0.17666169 0.16604635 1.2420001
0.10988227 0.16754328 1.2410001
0.11375304 0.1646336 1.2436666
-0.17288235 0.1737541 1.2434
-0.16754328 0.1784227 1.2410001
0.10681647 0.17480159 1.241889
0.11023645 0.174632 1.245
-0.16576891 0.18430603 1.244
-0.15992767 0.1882142 1.2410001
0.097450703 0.18782188 1.2420001
0.10328272 0.18303935 1.2438571
-0.16208032 0.19427809 1.245
-0.15709861 0.19610308 1.2420909
0.094078898 0.19523762 1.243
-0.1530585 0.20468384 1.2441112
-0.14741632 0.20779717 1.2410001
0.088194422 0.20470078 1.2420001
0.090968721 0.20440798 1.2442001
-0.15171155 0.2117413 1.245
-0.14441398 0.21485351 1.244059
-0.13708088 0.21650074 1.2410002
0.086860627 0.21526967 1.2436666
0.090590343 0.21064985 1.245
-0.14152467 0.22229198 1.2450001
-0.13638236 0.22496271 1.2423334
0.075796954 0.22650997 1.2422001
0.08342842 0.22302355 1.2440001
-0.13294475 0.23210537 1.243
-0.12837732 0.2360837 1.2410001
0.068650886 0.23537798 1.243
0.073101826 0.23360856 1.2445556
-0.12265952 0.2424904 1.2426001
-0.11786696 0.24641259 1.2426001
0.065840825 0.24525993 1.2434
-0.11478313 0.25389934 1.243
-0.10988227 0.25784257 1.2410001
0.059836887 0.25349081 1.2410001
0.062179334 0.25453669 1.2443333
-0.10424268 0.26496813 1.2438
-0.098277554 0.26799673 1.2410001
0.054397173 0.26509556 1.2410002
0.060029745 0.26085654 1.245
-0.10150485 0.27177104 1.245
-0.094993494 0.27538556 1.2426001
0.047869503 0.27633762 1.2410002
0.05218659 0.27432716 1.2438571
-0.093234383 0.28544274 1.2431818
-0.088123411 0.28830498 1.2410001
0.045397986 0.28581214 1.2427778
-0.091463506 0.29316345 1.245
-0.086524956 0.29539272 1.2423334
0.044495758 0.2945281 1.2425385
-0.083740659 0.30478144 1.2441112
-0.079419859 0.30788794 1.2410001
0.042717174 0.30356407 1.2435455
-0.081858747 0.31215471 1.245
-0.076938897 0.31478605 1.2424546
0.037456341 0.31534815 1.2410001
0.040383648 0.31324613 1.2450001
-0.071749538 0.32418722 1.2427144
-0.06745249 0.32747093 1.2410001
0.03428892 0.32492703 1.2416668
-0.064681508 0.33508137 1.2428182
-0.059111591 0.33762512 1.2410001
0.027214363 0.33526596 1.2416668
0.033834949 0.33143699 1.2450001
-0.061776068 0.34337017 1.245
-0.05579282 0.34478179 1.243
-0.047869503 0.34814191 1.2410001
0.018495036 0.34922981 1.2410001
0.022427764 0.34335685 1.2418002
-0.052545521 0.35253832 1.2450001
-0.046313565 0.35524285 1.243
0.016342696 0.35562721 1.2427144
0.020737549 0.35144687 1.245
-0.041924331 0.36297521 1.2444286
-0.035119738 0.36517167 1.2428461
-0.029374469 0.36881277 1.2410001
0.0090661943 0.3680875 1.2410001
0.013084542 0.36415392 1.2436666
-0.033834949 0.3724573 1.245
-0.026315048 0.37636936 1.2420001
-0.016319152 0.37969226 1.2410001
-0.0021767635 0.37673259 1.242
0.0041789245 0.37514016 1.2433333
0.012005949 0.37000152 1.245
-0.023544136 0.38309893 1.2450001
-0.014422042 0.38452327 1.2441112
-0.0051751826 0.38236448 1.2435
0.00109145 0.38091603 1.245
-0.20243987 -0.1705336 1.2550001
-0.19510655 -0.17085972 1.2574002
-0.18505763 -0.17107712 1.2590001
-0.14348403 -0.17107712 1.2590001
-0.13449514 -0.17197701 1.2575001
-0.1263268 -0.1713012 1.2574002
-0.11581451 -0.17096841 1.2582
-0.10485371 -0.17107712 1.2590001
-0.097127654 -0.17107712 1.2590001
-0.061808504 -0.17107712 1.2590001
-0.054394245 -0.17163178 1.2576668
-0.045804519 -0.17107712 1.2590001
-0.035319149 -0.17107712 1.2590001
-0.028696805 -0.17107712 1.2590001
-0.0055186166 -0.17107712 1.2590001
0.0055186166 -0.17107712 1.2590001
-0.20404415 -0.16634749 1.25
-0.19493392 -0.1658967 1.2519232
-0.18582256 -0.16625953 1.2529092
-0.17542149 -0.16735908 1.2549999
-0.16509256 -0.16730265 1.2555
-0.15473574 -0.16589558 1.2543572
-0.14493164 -0.16579425 1.2524167
-0.13484316 -0.16663373 1.2505001
-0.12467195 -0.16573104 1.2504545
-0.11480119 -0.16616713 1.2526923
-0.10493869 -0.16589737 1.2519232
-0.096159376 -0.1662927 1.25
-0.085674256 -0.16774529 1.2552859
-0.075496398 -0.16727562 1.2562222
-0.065158568 -0.16611476 1.2536429
-0.05490125 -0.16690199 1.2525001
-0.045019027 -0.16690199 1.2525001
-0.035136804 -0.16690199 1.2525001
-0.025270913 -0.16593406 1.2534668
-0.015387637 -0.16488309 1.2538127
-0.005858812 -0.16514671 1.2530558
0.0054938509 -0.16479445 1.2531501
0.015399965 -0.16500556 1.25475
0.025678286 -0.16435479 1.2542354
0.035164852 -0.16484226 1.2535002
0.044547819 -0.16416958 1.255667
0.055607099 -0.16304609 1.2578572
0.065049939 -0.1630566 1.2576667
0.074317373 -0.16298315 1.2590001
0.08454521 -0.16180585 1.2590001
0.10669326 -0.16077571 1.2590001
0.12472074 -0.16003989 1.2590001
0.13465425 -0.16003989 1.2590001
0.14017287 -0.16003989 1.2590001
0.21853721 -0.16003989 1.2590001
0.22515956 -0.16003989 1.2590001
0.2350931 -0.16003989 1.2590001
0.24549963 -0.16098593 1.2590001
0.25496009 -0.1611436 1.2590001
0.26489359 -0.16169547 1.2590001
0.27151594 -0.16003989 1.2590001
0.0098624993 -0.15889582 1.25
0.013149999 -0.15889582 1.25
0.038354166 -0.15889582 1.25
0.045923557 -0.15845124 1.2514286
0.05490125 -0.1581178 1.2525001
0.064783476 -0.15811782 1.2525001
0.075549938 -0.15739079 1.2522728
0.084864073 -0.15764715 1.2531251
0.094987921 -0.15488127 1.2543077
0.10467613 -0.1550612 1.2531431
0.11529262 -0.15592395 1.2525004
0.12528539 -0.15495954 1.2535834
0.13494198 -0.15489906 1.2543572
0.14463134 -0.15423532 1.2541819
0.15515055 -0.15405683 1.2552
0.1653294 -0.15573545 1.255
0.1756954 -0.15419616 1.2556155
0.1848457 -0.15454182 1.2540001
0.19513683 -0.15593469 1.255
0.20495729 -0.15564935 1.2556
0.21459669 -0.15510534 1.2535
0.22465366 -0.15489292 1.2517859
0.23553403 -0.15576518 1.2522223
0.24542114 -0.1549222 1.2519232
0.25549084 -0.15541677 1.2520589
0.26554388 -0.15493046 1.2542504
0.27339858 -0.15433848 1.2575001
0.26559332 -0.1448659 1.2518752
0.27306324 -0.14535637 1.2585
0.25777835 -0.13382316 1.25125
0.2641317 -0.13600776 1.25625
0.25630251 -0.12540191 1.25475
0.26268613 -0.12913564 1.2590001
0.24875416 -0.11067916 1.25
0.25387171 -0.11549286 1.2547001
0.24821003 -0.10471471 1.2535715
0.25170907 -0.1047843 1.2582
0.23779583 -0.09095417 1.25
0.24489488 -0.095051907 1.2526667
0.25054517 -0.098231375 1.2590001
0.22925819 -0.083363332 1.25125
0.23527108 -0.084646076 1.2540501
0.24213623 -0.08746662 1.2566001
0.22614639 -0.075256489 1.2522225
0.23543176 -0.075591668 1.2580769
0.21748567 -0.062867962 1.2508334
0.22409979 -0.065588854 1.2555883
0.23288563 -0.067327119 1.2589999
0.20930415 -0.052599996 1.25
0.21450236 -0.055823721 1.25475
0.22184838 -0.058497339 1.2590001
0.20669325 -0.043210901 1.2557501
0.21132372 -0.048879139 1.2576668
0.19834583 -0.032875001 1.25
0.20427449 -0.035399627 1.2540668
0.19612251 -0.02398341 1.2517859
0.20324807 -0.025884386 1.2565833
0.18863986 -0.014872024 1.25
0.19559225 -0.015735166 1.2564286
0.20198138 -0.018763298 1.2590001
0.18593194 -0.0045439508 1.2517859
0.19256406 -0.0055066943 1.2566001
-0.29347301 0.0074657807 1.2519001
-0.28747362 0.0091319438 1.25
0.17723911 0.0069446606 1.2505556
0.18451364 0.0051395558 1.255278
0.19094414 0.0011037233 1.2590001
-0.29262486 0.013871849 1.2558001
-0.2862221 0.016051767 1.2509091
0.17644714 0.01539339 1.2540001
0.18412893 0.012128099 1.2576668
-0.28483617 0.024418965 1.2544669
-0.27724582 0.026665274 1.25
0.1670094 0.027445303 1.2521429
0.17226364 0.024697328 1.256143
-0.28144944 0.033111699 1.2590001
-0.27486798 0.035185236 1.2541251
-0.26847917 0.037258334 1.25
0.1658182 0.035465959 1.255154
0.17107712 0.033111699 1.2590001
-0.28144944 0.041941486 1.2590001
-0.27498198 0.044790074 1.2563335
-0.26786307 0.045479029 1.2516667
0.15889582 0.049312498 1.25
0.16505851 0.045115322 1.2551502
0.17107712 0.049667548 1.2590001
-0.27261966 0.053530581 1.2590001
-0.26637888 0.054924481 1.253
0.1578 0.054791663 1.25
0.16505887 0.055016916 1.2551877
0.17312083 0.056234837 1.2578
-0.26227063 0.06060835 1.2570001
-0.25471774 0.065760046 1.2558182
-0.24875416 0.067941666 1.25
0.15779999 0.061366662 1.25
0.16555466 0.063862979 1.250625
0.17541566 0.064659625 1.2556961
0.18276589 0.066801481 1.2574002
-0.25054517 0.072845742 1.2590001
-0.24538611 0.075759232 1.252375
-0.23998749 0.079995833 1.25
0.16728224 0.075415254 1.25125
0.17494087 0.074862637 1.2568824
-0.24350078 0.084841967 1.2568183
-0.23736681 0.085519381 1.250625
0.16490021 0.085098349 1.2547274
0.17181294 0.08130762 1.2590001
-0.23467281 0.094128802 1.2557501
-0.22649077 0.096472353 1.2505001
0.15662748 0.096314989 1.2508334
0.16304611 0.094363019 1.2578572
-0.23233376 0.10457779 1.2589999
-0.22511742 0.10486595 1.2532781
-0.21807082 0.10848749 1.25
0.14793749 0.10739166 1.25
0.15474574 0.10521058 1.2539413
0.16224733 0.10154255 1.2590001
-0.23067817 0.11257978 1.2590001
-0.22399029 0.11411564 1.2550714
-0.21618196 0.11597826 1.2507693
0.14692058 0.11590098 1.2537779
0.15155549 0.11405416 1.2582
-0.22240025 0.12196143 1.2590001
-0.21527849 0.12512009 1.2541335
-0.20875624 0.12656875 1.25
0.1448639 0.12502164 1.2571112
-0.21303773 0.13408546 1.2578
-0.20499912 0.13557087 1.2514286
-0.19834583 0.13917083 1.25
0.1380761 0.13588443 1.2525001
0.14215413 0.13223815 1.2570001
-0.21081115 0.14017287 1.2590001
-0.20434161 0.14401098 1.2574545
-0.19717439 0.14561872 1.25125
0.1282125 0.14793749 1.25
0.13365462 0.14437056 1.25475
-0.19521707 0.15434697 1.2538825
-0.18957917 0.15670416 1.25
0.11944583 0.15889582 1.25
0.12580188 0.15564831 1.2532501
0.13113444 0.15207362 1.2570001
-0.19244631 0.16377404 1.2580001
-0.18574373 0.1662927 1.25
0.11776592 0.16579959 1.2525001
0.12398066 0.16435099 1.2582
-0.18513097 0.17301106 1.2570001
-0.1772873 0.17646542 1.254125
0.11519562 0.17562266 1.255077
0.12030584 0.17218083 1.2590001
-0.17431457 0.18492413 1.2562728
-0.1676625 0.18793541 1.25
0.10667828 0.18593004 1.25125
0.11252243 0.1839675 1.2565715
-0.1714099 0.19347176 1.2582
-0.166573 0.19585854 1.2527778
0.099172913 0.19505833 1.25
0.10433574 0.19419423 1.2547693
0.11147606 0.19094414 1.2590001
-0.16463858 0.20406716 1.2543573
-0.15814629 0.20552485 1.251
0.095706187 0.20508072 1.2521819
0.10148937 0.20408186 1.2583334
-0.16077571 0.2130186 1.2590001
-0.15514177 0.21527736 1.2537858
-0.14793749 0.21807082 1.25
0.093968309 0.21397826 1.2529091
-0.15233874 0.22308275 1.2552857
-0.14550635 0.22529176 1.2513638
-0.13917083 0.22902916 1.25
0.079995833 0.22902916 1.25
0.086519457 0.22595802 1.2524
0.092257775 0.22304629 1.2558001
-0.14569148 0.23067817 1.2590001
-0.13526236 0.23575756 1.2521111
0.076014519 0.23712708 1.2514286
0.082000278 0.23435295 1.2567145
-0.13333838 0.24316981 1.2570002
-0.12605834 0.24686787 1.2527778
0.069037497 0.24765833 1.25
0.073687196 0.24561863 1.2545002
-0.12473643 0.2540949 1.2569001
-0.11806434 0.25586611 1.2508334
0.066745415 0.25570217 1.2518183
0.071742021 0.25385636 1.2590001
-0.12030584 0.26158243 1.2590001
-0.11467138 0.26468036 1.2567694
-0.10793957 0.26683542 1.25
0.05758933 0.26710388 1.25125
0.063882709 0.26488265 1.2563335
-0.11221188 0.27298757 1.2590001
-0.10572262 0.2754319 1.2524287
-0.099172913 0.27779374 1.25
0.056669679 0.27481261 1.2511111
0.062986255 0.27476579 1.2572858
-0.10428672 0.28455746 1.256231
-0.098259717 0.28418609 1.25
0.049312498 0.28491664 1.25
0.055197611 0.28512928 1.2536114
0.062353622 0.28377774 1.2566
-0.10228534 0.29298463 1.2584286
-0.095453665 0.29579216 1.2515
0.049312498 0.29477915 1.25
0.05457814 0.29474586 1.2558573
0.061808504 0.29138297 1.2590001
-0.10043883 0.30131647 1.2590001
-0.094519958 0.3044616 1.2557144
-0.08809112 0.30557752 1.2508334
0.048041336 0.30607283 1.2525001
0.052555874 0.30357158 1.2576668
-0.093540549 0.31290555 1.2589999
-0.086249441 0.3149935 1.2526155
-0.079995833 0.31888747 1.25
0.04563389 0.31457955 1.2541251
0.051874999 0.31014627 1.2590001
-0.084662803 0.3244673 1.2563336
-0.077007189 0.32526329 1.25
0.038354166 0.32765418 1.25
0.04345819 0.32382485 1.2560771
-0.082163401 0.33195686 1.2580001
-0.074450351 0.33547485 1.2540716
-0.069037497 0.33642083 1.25
0.029587498 0.3386125 1.25
0.035036664 0.33652487 1.2531111
0.040837765 0.33222073 1.2590001
-0.0734336 0.34509897 1.2585555
-0.066065945 0.34584469 1.2511538
-0.058079164 0.34957081 1.25
0.027102588 0.34606403 1.2531667
0.031957131 0.3438164 1.2570001
-0.064729333 0.35478085 1.257067
-0.056450997 0.35637912 1.2516667
0.018629165 0.35833749 1.25
0.023532627 0.35577121 1.2541001
-0.061808504 0.36091754 1.2590001
-0.054811832 0.36517006 1.2554002
-0.046390276 0.36582565 1.25
0.017184615 0.36572483 1.2511111
0.02237078 0.36462793 1.254889
-0.052555874 0.37229669 1.2576668
-0.045126121 0.37439454 1.2553334
-0.036810607 0.37639996 1.2507143
0.0093244454 0.37679681 1.25125
0.014962246 0.37489563 1.2548002
0.022041153 0.37136388 1.2570001
-0.04157358 0.38152036 1.2590001
-0.035226822 0.38525251 1.2555625
-0.026447082 0.38692945 1.2511111
-0.01789861 0.38829026 1.25
-0.0049921293 0.38804674 1.25
0.005187863 0.38517377 1.2532859
-0.032007977 0.39182177 1.2590001
-0.024986148 0.39403528 1.2557694
-0.015155229 0.39512596 1.2526668
-0.005857789 0.39525855 1.2535558
0.0030317325 0.3939552 1.2570001
-0.020970743 0.40065157 1.2590001
-0.014103133 0.40482119 1.2589999
-0.0060091601 0.40518919 1.2590002
0.0011037233 0.40065157 1.2590001
-0.19482182 -0.1755749 1.2666667
-0.18462776 -0.1754398 1.2654285
-0.17491646 -0.17518133 1.2661176
-0.16474536 -0.17414321 1.2664615
-0.15469161 -0.17452683 1.2668571
-0.14427862 -0.17553639 1.2650909
-0.1354029 -0.17757934 1.266
-0.12485329 -0.17538983 1.2653334
-0.11482812 -0.17551371 1.2662221
-0.10492415 -0.17520553 1.2657778
-0.094526023 -0.1748306 1.2658182
-0.085286513 -0.17459826 1.2654999
-0.075015418 -0.17435768 1.2655385
-0.065465465 -0.17500421 1.2657143
-0.055369765 -0.17595401 1.2668571
-0.044823617 -0.17486063 1.2656001
-0.035314586 -0.17458187 1.2667999
-0.022732843 -0.17244822 1.265
-0.014639984 -0.17369606 1.2652
-0.005054275 -0.17520553 1.2657778
0.0055475463 -0.17508171 1.266
0.014426425 -0.17341781 1.266
0.024455491 -0.17230007 1.268
0.034394793 -0.17197394 1.2656001
0.043352917 -0.17230007 1.268
0.054469056 -0.17007683 1.268
0.06113873 -0.17007683 1.268
0.075589702 -0.17007683 1.268
0.2523362 -0.17007683 1.268
0.02327024 -0.16954033 1.2640002
0.046540476 -0.16898628 1.2640001
0.05474047 -0.16688088 1.2640001
0.06457597 -0.16709267 1.2656001
0.075360768 -0.16706912 1.2668574
0.084831722 -0.16560037 1.2640001
0.094253279 -0.16394258 1.26675
0.10351229 -0.16374882 1.2657144
0.11499021 -0.16464229 1.268
0.12542832 -0.16470896 1.2661538
0.13417733 -0.16527328 1.2666665
0.1443401 -0.16265979 1.2665001
0.15491846 -0.16259873 1.2679999
0.16474536 -0.16304055 1.2664615
0.17493972 -0.16309479 1.267
0.1846825 -0.16417305 1.2668234
0.19425637 -0.16420293 1.2670586
0.20467296 -0.16417302 1.2668234
0.2145222 -0.16450348 1.2663528
0.22483143 -0.16510089 1.2651429
0.23467317 -0.16545855 1.2666667
0.24462639 -0.16502768 1.2654999
0.25446042 -0.16569787 1.2656667
0.26456258 -0.16587864 1.2648
0.27514216 -0.16491082 1.2658666
0.28326422 -0.16329338 1.2671112
0.14737821 -0.15845928 1.2640002
0.15513495 -0.15845926 1.2640001
0.17508087 -0.15845926 1.2640001
0.18062139 -0.15845926 1.2640001
0.27813476 -0.15513495 1.2640001
0.28230593 -0.15525521 1.2667999
0.27737033 -0.14447267 1.2662858
0.28123817 -0.14562134 1.268
0.26838347 -0.13363765 1.2640001
0.27349895 -0.13498855 1.2673333
0.26446095 -0.12439285 1.2654999
0.27086312 -0.12709445 1.268
0.2581889 -0.11413499 1.2640002
0.26354563 -0.11506402 1.2677333
0.2567451 -0.10521754 1.2658182
0.26122913 -0.10671487 1.268
0.24932401 -0.093080953 1.2640001
0.25259265 -0.094094828 1.2665
0.24546009 -0.084591761 1.2655001
0.25011298 -0.087817445 1.268
0.23824292 -0.072026931 1.2640001
0.24247999 -0.075009607 1.2662858
0.22863935 -0.061684608 1.2640002
0.23616412 -0.063653342 1.2658182
0.24122009 -0.0666968 1.268
0.21826826 -0.053066384 1.2664001
0.22460219 -0.054412283 1.2667499
0.23313564 -0.056894396 1.2679999
0.21446189 -0.044555705 1.2653333
0.22454588 -0.047799375 1.268
0.20943215 -0.032135095 1.2640001
0.21369147 -0.035429765 1.2665454
0.20810245 -0.025486454 1.2640001
0.21098422 -0.024677817 1.268
0.20302504 -0.014698631 1.2655001
0.19784765 -0.0052334499 1.2668574
-0.30124718 0.0077812932 1.268
0.18948624 0.0088648535 1.2640001
0.19358787 0.0037030398 1.2666668
-0.29668364 0.016199397 1.2656001
0.18512569 0.016205359 1.2659999
0.19119748 0.012227746 1.268
-0.29300305 0.024418673 1.266
-0.28847712 0.029180143 1.2640002
0.17680691 0.025751401 1.2648889
0.18174878 0.022788074 1.268
-0.29102036 0.033570722 1.268
-0.28549913 0.035937373 1.2652
0.17497145 0.03441513 1.2664
-0.29013106 0.041129693 1.268
-0.28429985 0.045017414 1.2662222
0.17413792 0.045089774 1.2667999
-0.28212798 0.052204624 1.2670001
-0.27582034 0.055256646 1.2656001
-0.26926991 0.058729656 1.2640001
0.17686731 0.052379865 1.2653334
0.18413985 0.054636825 1.2665263
0.1911975 0.055580661 1.268
-0.26380128 0.064978532 1.267
-0.25818887 0.069810718 1.2640001
0.18580969 0.063991219 1.2657778
0.19008587 0.064473569 1.268
-0.26122913 0.070031643 1.268
-0.25520563 0.0751791 1.2661818
0.18437557 0.074710399 1.2656667
-0.2515814 0.08441861 1.2670001
-0.24843752 0.08532422 1.2640001
0.16898628 0.088094473 1.2640001
0.1759783 0.084959246 1.2661538
0.18193404 0.081888855 1.268
-0.25011298 0.091152295 1.268
-0.24411561 0.095428415 1.2657143
-0.23824292 0.098621488 1.2640001
0.16709267 0.096085466 1.2656001
0.17118846 0.093375519 1.2680001
-0.2422366 0.10445175 1.2675
-0.2369132 0.10615662 1.2640001
0.16367367 0.10520741 1.2662222
-0.24196117 0.11079079 1.268
-0.23471719 0.11507515 1.2662222
-0.22937807 0.1174593 1.2640001
0.15662624 0.11567983 1.2654545
0.16173974 0.11338454 1.268
-0.23065975 0.12450069 1.268
-0.22537494 0.12580369 1.2643334
0.14811693 0.12669352 1.2640002
0.15308353 0.12397961 1.2671999
-0.2240435 0.13477966 1.2664001
-0.21741055 0.13674036 1.2640001
0.14510888 0.13559178 1.2662858
0.15006781 0.13005875 1.268
-0.2226932 0.14265704 1.2680001
-0.21551344 0.14449127 1.2658666
-0.2076592 0.14782144 1.2640001
0.13682802 0.14791472 1.2648001
0.14263467 0.14295328 1.2668571
-0.21176232 0.15062362 1.268
-0.20501025 0.15565582 1.2661538
0.13574386 0.15504619 1.2667692
-0.20285366 0.16197152 1.2672001
-0.19603883 0.16609958 1.2648
0.12780163 0.16547728 1.2640001
0.13253997 0.16428733 1.2674286
-0.19396636 0.17396925 1.2672
-0.18650207 0.1776316 1.2648001
0.12455738 0.17470914 1.2666667
0.13005875 0.17007683 1.268
-0.18318686 0.18318546 1.2664
-0.17840518 0.18837813 1.2640001
0.1174608 0.1853068 1.2657144
0.12097473 0.18201879 1.266
-0.18119296 0.19119748 1.268
-0.17674589 0.19572525 1.2665455
0.10859445 0.1961349 1.2640001
0.11301401 0.19379126 1.2680001
-0.1731399 0.20421423 1.266
-0.16843222 0.20943215 1.2640001
0.10511979 0.20496422 1.2655001
0.11004971 0.20120201 1.268
-0.17102966 0.21485896 1.2680001
-0.16509855 0.21575586 1.2653333
0.097513378 0.21718891 1.2640001
0.10274446 0.21381725 1.267
-0.16244546 0.22353771 1.267
-0.15677838 0.22629339 1.2653334
0.095869921 0.22467914 1.2666668
-0.15117942 0.23343879 1.268
-0.14472598 0.23504603 1.2666667
0.08646889 0.23592605 1.2668574
0.093229994 0.23084913 1.266
-0.14117488 0.24233171 1.268
-0.13673896 0.24574721 1.2651429
0.078675583 0.24489158 1.2640002
0.083009422 0.24408855 1.2662222
-0.13422729 0.25316992 1.268
-0.12854037 0.25708073 1.2640001
0.076413766 0.25487256 1.2665454
0.082037069 0.25189158 1.268
-0.13005875 0.26234072 1.268
-0.12434612 0.26481944 1.2655385
-0.11856741 0.26926991 1.2640001
0.067594513 0.26705372 1.2640002
0.072139136 0.26415017 1.2659999
-0.12314011 0.27423948 1.2673333
-0.11683196 0.27534172 1.2644
0.067594506 0.27481043 1.2640001
0.071019739 0.27407444 1.268
-0.12116586 0.28346142 1.268
-0.11526496 0.28453007 1.2663528
-0.10914851 0.28755367 1.2640001
0.066927068 0.28545433 1.2653334
0.070031643 0.28234977 1.268
-0.11338456 0.29346591 1.268
-0.10578071 0.29583153 1.2648
0.058729656 0.29808071 1.2640001
0.064530469 0.29500809 1.2666667
-0.10401416 0.30444527 1.2666667
-0.098621488 0.30916175 1.2640001
0.056565538 0.30500489 1.2651429
0.06187981 0.30198827 1.268
-0.10204609 0.31325266 1.268
-0.097399667 0.31595418 1.2645715
0.053851441 0.31504551 1.2665
-0.094124995 0.32373068 1.2658182
-0.089017898 0.32836896 1.2640002
0.048756693 0.32606035 1.2640001
0.052801631 0.32292366 1.268
-0.091152295 0.33237237 1.268
-0.085406624 0.33607647 1.2652
0.044860788 0.33542171 1.2657143
0.050022598 0.33348399 1.268
-0.083491698 0.34377462 1.267
-0.078042373 0.34557098 1.2640002
0.036627483 0.34538874 1.266
0.043771617 0.34149465 1.2672001
-0.081703581 0.35182562 1.268
-0.075341001 0.35468477 1.2652308
-0.069810718 0.35791847 1.2640001
0.028589154 0.35525903 1.2640001
0.034046542 0.35369515 1.2676363
-0.070772722 0.36201543 1.268
-0.064427994 0.36508384 1.2650909
0.026777912 0.36521438 1.265143
0.030013559 0.36349759 1.268
-0.061847664 0.37404737 1.2673335
-0.0565685 0.37600619 1.2652
0.018897425 0.37906012 1.268
0.024593256 0.37427604 1.2668571
-0.05247454 0.38361993 1.2675556
-0.045273494 0.38494807 1.2643079
0.0099729598 0.38894546 1.2640001
0.015171788 0.38420326 1.2662222
0.021120653 0.38128337 1.268
-0.050022598 0.39128786 1.268
-0.044675127 0.39477053 1.2668889
-0.035782028 0.39602447 1.2647272
-0.029918881 0.39781031 1.2640001
0.0077616558 0.39407152 1.2648
0.011116132 0.39239949 1.268
-0.043334384 0.40238199 1.2674286
-0.034108538 0.40324718 1.2676923
-0.025006577 0.40444139 1.2655385
-0.017951328 0.40711841 1.2640001
-0.0011081067 0.40778327 1.2640001
0.002776403 0.40482011 1.266
-0.02334388 0.41343462 1.268
-0.015531686 0.41539651 1.26525
-0.0053189122 0.41576168 1.2640001
0.0011081067 0.41110757 1.2640001
-0.021120653 0.42130142 1.268
-0.014636243 0.42370996 1.2679999
-0.0051134215 0.42263538 1.268
-0.18319988 -0.18264627 1.27425
-0.17563832 -0.18319429 1.276125
-0.16469587 -0.18262196 1.2780001
-0.15413229 -0.18358229 1.2780001
-0.14507955 -0.18190745 1.273
-0.13949957 -0.18190745 1.273
-0.12324181 -0.18038119 1.2780001
-0.11465223 -0.18187504 1.2780001
-0.10531573 -0.18262196 1.2780001
-0.095161289 -0.18247905 1.2770001
-0.085781842 -0.18313071 1.2763333
-0.076025799 -0.18326218 1.2780001
-0.064888351 -0.18347439 1.276125
-0.055458814 -0.18262196 1.2780001
-0.044815205 -0.18262196 1.2780001
-0.034731783 -0.18172565 1.2780001
-0.02128722 -0.18038119 1.2780001
-0.017926082 -0.18038119 1.2780001
-0.0033611401 -0.18262196 1.2780001
0.0044815205 -0.18262196 1.2780001
0.014564941 -0.1821738 1.2780001
0.02128722 -0.18038119 1.2780001
-0.18413945 -0.17967546 1.273
-0.17186347 -0.17967546 1.273
-0.1651675 -0.17967546 1.273
-0.15512353 -0.17967546 1.273
-0.14731157 -0.17967546 1.273
-0.1305716 -0.17967546 1.273
-0.12722361 -0.17967546 1.273
-0.11383165 -0.17967546 1.273
-0.10490369 -0.17967546 1.273
-0.094859712 -0.17967546 1.273
-0.082583755 -0.17967546 1.273
-0.074771777 -0.17967546 1.273
-0.064727798 -0.17967546 1.273
-0.054683842 -0.17967546 1.273
-0.044639863 -0.17967546 1.273
-0.034595896 -0.17878266 1.273
-0.025073418 -0.1767856 1.2751429
-0.014507956 -0.17855947 1.273
-0.0044639865 -0.17967546 1.273
0.0037943886 -0.17922907 1.273
0.015003954 -0.17818746 1.2729999
0.024600143 -0.17667593 1.2754999
0.033871625 -0.17569964 1.2738333
0.044756755 -0.17604521 1.2763333
0.053953134 -0.17415947 1.2754999
0.065351367 -0.17241116 1.2758572
0.070307784 -0.17074747 1.273
0.08479847 -0.17199524 1.2751429
0.094713144 -0.17173217 1.2770001
0.10531573 -0.17141815 1.2780001
0.11591594 -0.17145626 1.2755001
0.12523709 -0.1722032 1.2754999
0.13439421 -0.17183927 1.2748749
0.14424631 -0.17220318 1.2755001
0.15573284 -0.17141816 1.2780001
0.16469586 -0.17141815 1.2780001
0.17575853 -0.17128401 1.2770001
0.18595083 -0.17253843 1.2752222
0.19449247 -0.17255765 1.2743635
0.20516904 -0.17236495 1.2757777
0.21526541 -0.17204142 1.2752222
0.22530082 -0.17236492 1.2757777
0.23498183 -0.17183927 1.2748749
0.24543257 -0.17236495 1.2757777
0.25772333 -0.17268842 1.2763335
0.26445499 -0.17204145 1.2752222
0.27451178 -0.17236492 1.2757777
0.284439 -0.17245468 1.277375
0.29305944 -0.17237848 1.2780001
0.097091705 -0.16851549 1.273
0.10468049 -0.16806911 1.273
0.11494765 -0.16851549 1.273
0.12164363 -0.16851549 1.273
0.13838357 -0.16851549 1.273
0.14564113 -0.16765349 1.2737143
0.15469329 -0.16759701 1.2735554
0.1651675 -0.16851549 1.273
0.17489262 -0.16787778 1.273
0.19864741 -0.16851549 1.273
0.21092336 -0.16851549 1.273
0.23993927 -0.16851549 1.273
0.24440324 -0.16851549 1.273
0.28713003 -0.16660236 1.273
0.29424611 -0.16469066 1.2755001
0.28768033 -0.15469329 1.2735554
0.29203784 -0.15589881 1.2763333
0.28482985 -0.1444629 1.2752222
0.29017845 -0.14901054 1.2780001
0.27732515 -0.1322456 1.273
0.28177953 -0.13626929 1.27675
0.27526879 -0.12478109 1.2746665
0.28121537 -0.12884371 1.2780001
0.26850876 -0.11316206 1.273
0.27269319 -0.11606684 1.276125
0.26458055 -0.10457871 1.2744999
0.27001157 -0.10755649 1.2780001
0.25744683 -0.094005845 1.2744286
0.26186299 -0.096777119 1.2772858
0.24886724 -0.082583755 1.273
0.25441056 -0.085298777 1.2746665
0.24709947 -0.074339099 1.274111
0.25208551 -0.079546981 1.2780001
0.24435994 -0.064641021 1.2744286
0.22543132 -0.050219849 1.273
0.23618889 -0.053043447 1.2738333
0.24349593 -0.056765925 1.2780001
0.21985134 -0.044639863 1.273
0.2254955 -0.04417317 1.273357
0.23379473 -0.045861941 1.2759999
0.2183792 -0.033975091 1.2737143
0.22478586 -0.035969634 1.2765715
0.2161984 -0.024892841 1.276125
0.22071487 -0.0280095 1.2780001
0.20712703 -0.013572054 1.2751429
0.21175183 -0.017926082 1.2780001
0.1997634 -0.0011159966 1.273
0.20300679 -0.0052167512 1.2746667
0.19741802 0.0052167512 1.2746667
0.20129496 0.0033611401 1.2780001
-0.30191085 0.014538641 1.2755001
0.18860342 0.018971942 1.273
0.19307481 0.0154902 1.2751429
-0.29781231 0.025346331 1.2755001
0.18616685 0.024883782 1.2743635
0.19158499 0.022407601 1.2780001
-0.29595011 0.034849841 1.2754999
0.17893146 0.036455892 1.273
0.18455586 0.035154961 1.2758572
-0.29320681 0.044263031 1.2758572
-0.28792715 0.046871856 1.273
0.17855947 0.04352387 1.273
0.18539269 0.04467028 1.2739376
0.19439657 0.04551971 1.2760769
0.20054804 0.047055963 1.2780001
-0.28681114 0.050219849 1.273
-0.27731287 0.058143605 1.2755001
0.18860342 0.050219849 1.273
0.19580072 0.053975634 1.2738333
0.20054804 0.053778242 1.2780001
-0.27159116 0.064261608 1.2770001
-0.26783919 0.065843798 1.273
0.19406566 0.064070024 1.2746667
-0.26357841 0.07443893 1.2757777
-0.25779521 0.079235762 1.273
0.1883533 0.078696325 1.2763335
0.19177039 0.072124243 1.2755001
-0.2554855 0.084668756 1.2763335
0.18495983 0.085834719 1.2752222
-0.2526457 0.095792502 1.2780001
-0.24984474 0.099713825 1.2780001
0.17614016 0.095260195 1.2743334
0.18138248 0.09517312 1.2771667
-0.25208551 0.10195459 1.2780001
-0.24727717 0.10431387 1.274
0.16795748 0.10657769 1.273
0.17436339 0.10477797 1.2772858
-0.24445 0.11463118 1.2765715
-0.2387625 0.11733599 1.2746668
0.16605353 0.1149874 1.2754999
0.17141815 0.11091763 1.2780001
-0.23536612 0.12479389 1.2758572
0.15745854 0.12581965 1.2738333
0.16264902 0.12372117 1.276
-0.23221192 0.13343787 1.2755001
-0.2287793 0.13726757 1.273
0.14842758 0.13726757 1.273
0.15300313 0.1341151 1.273909
-0.22631678 0.14452901 1.2780001
0.14644356 0.14619558 1.2729999
0.15180098 0.14396855 1.2763333
-0.22071487 0.1512513 1.2780001
-0.21407877 0.15508313 1.2744999
0.13949957 0.15847152 1.273
0.14464083 0.15432274 1.2750001
-0.21287221 0.16133472 1.2780001
-0.20573865 0.16625321 1.2746665
0.13702574 0.16542149 1.2737143
0.14184012 0.16379957 1.2780001
-0.20364325 0.17268842 1.2763333
-0.19724017 0.17669006 1.274
0.12759563 0.17893146 1.273
0.13322839 0.17345397 1.2746665
-0.19382197 0.18387762 1.2763333
-0.18748438 0.18748437 1.2755001
0.12516035 0.18534799 1.2757273
0.13108447 0.18038119 1.2780001
-0.18463147 0.19456017 1.2746665
0.11663923 0.19564134 1.2752222
0.12212143 0.19270536 1.2780001
-0.18262196 0.20323694 1.2780001
-0.1784198 0.20487115 1.2746667
0.10825168 0.20757537 1.273
0.11238012 0.20546657 1.2754999
-0.17446749 0.21501535 1.273
0.10663083 0.21605219 1.2736249
0.11126084 0.21301597 1.2755001
-0.17220318 0.22251949 1.2755001
-0.16851549 0.22208333 1.273
0.098579697 0.2265473 1.273
0.10426606 0.22356088 1.2757777
-0.15447095 0.23405965 1.275
-0.14619558 0.23770729 1.273
0.088163733 0.23993927 1.273
0.094863363 0.23555744 1.2753077
-0.14410976 0.24540004 1.27675
0.087419741 0.24626325 1.273
0.091576077 0.24382854 1.2770001
-0.14154135 0.25619355 1.2780001
-0.13698545 0.255732 1.2738333
0.085963219 0.25524947 1.2734544
0.090750791 0.25544664 1.2780001
-0.14004751 0.26104856 1.2780001
-0.13421105 0.26410249 1.2772858
-0.12833962 0.26895517 1.273
0.077561766 0.26504922 1.2729999
0.084303655 0.26393324 1.2753333
-0.13108447 0.27113196 1.2780001
-0.12829649 0.27606744 1.2770001
0.077003777 0.27453515 1.2729999
0.082043909 0.27384874 1.275
-0.12467466 0.2852003 1.2735554
0.074848488 0.28402048 1.27425
0.081787743 0.28121537 1.2780001
-0.12390558 0.29305142 1.2765715
-0.11833598 0.29623947 1.2751429
0.068075791 0.29685509 1.273
0.071824931 0.29353619 1.2772858
-0.11253577 0.30382094 1.2759999
-0.10713568 0.30801505 1.273
0.059147824 0.30801505 1.273
0.065354228 0.30500731 1.2752727
-0.10606265 0.31520027 1.2780001
0.058257632 0.31554502 1.2744286
0.062367827 0.31258607 1.2780001
-0.10241506 0.32291514 1.2767501
-0.0990583 0.3268277 1.2767501
0.056315046 0.32513598 1.2744999
-0.095085025 0.33536479 1.2759999
0.054193866 0.33460081 1.2757273
-0.091609679 0.34421366 1.2765715
-0.087419741 0.34707496 1.273
0.04494423 0.34727788 1.2729999
0.051032521 0.34156865 1.2746668
-0.085836679 0.35438657 1.2752222
0.037571885 0.35674691 1.273
0.043645293 0.35474542 1.2765
-0.07528083 0.3652111 1.2774445
0.034647562 0.36512336 1.2747858
-0.070583947 0.37084579 1.2780001
-0.065992847 0.37469801 1.2758572
0.027192444 0.37807417 1.2746668
0.033218216 0.37246978 1.2771667
-0.062468994 0.38488597 1.2770001
-0.056693818 0.38707307 1.2742499
0.018413944 0.38780883 1.273
0.024387464 0.38436204 1.2759999
-0.061620906 0.39101264 1.2780001
-0.054667417 0.39502347 1.276
0.014061558 0.3950628 1.2729999
0.02128722 0.39101264 1.2780001
-0.051065397 0.40403947 1.2755001
-0.045145079 0.40756735 1.2737143
-0.035233609 0.40861422 1.273
0.0069749784 0.40594375 1.2729999
0.011449925 0.40355265 1.2742499
-0.050417103 0.41117948 1.2780001
-0.045039281 0.41252396 1.2780001
-0.034085386 0.41401809 1.2746665
-0.027341915 0.41682473 1.273
0.004368111 0.41514125 1.273909
0.01008342 0.41117948 1.2780001
-0.031370644 0.42238328 1.2780001
-0.024789736 0.42497158 1.2736667
-0.015251955 0.42928669 1.273
-0.0046240408 0.4279854 1.2737143
0.0033574873 0.42192897 1.2755001
-0.02352798 0.43321365 1.2780001
