# .PCD v0.7 - Point Cloud Data file format
VERSION 0.7
FIELDS x y z
SIZE 4 4 4
TYPE F F F
COUNT 1 1 1
WIDTH 109
HEIGHT 1
VIEWPOINT 0 0 0 1 0 0 0
POINTS 109
DATA ascii
0.7862227 -0.60195178 1.557
0.7862227 -0.59512693 1.557
0.73435378 -0.57328737 1.557
0.74117875 -0.57328737 1.557
0.73902655 -0.57997817 1.5640001
0.74176878 -0.57997817 1.5640001
0.76687825 -0.61184144 1.5790001
0.77390081 -0.61126959 1.5760003
0.78451806 -0.61186647 1.5755
0.79246229 -0.61139667 1.5766668
0.76687825 -0.60768867 1.5790001
0.77571338 -0.60526645 1.5769416
0.78445649 -0.60438222 1.5720001
0.79317909 -0.60768867 1.5790001
0.77565926 -0.59540969 1.5785629
0.7850607 -0.59584773 1.5761179
0.79279596 -0.59529525 1.5755
0.73564047 -0.58349603 1.572
0.77324575 -0.58720171 1.5790001
0.78720075 -0.58784431 1.5748001
0.79393166 -0.58741921 1.5774447
0.73453796 -0.57743227 1.572
0.77166831 -0.60760188 1.5860001
0.73829883 -0.59091717 1.5860001
0.76796055 -0.59601533 1.5860002
0.77222455 -0.59592265 1.5860001
0.78557223 -0.59091723 1.5860002
0.73829883 -0.58813637 1.5860001
0.802257 -0.58813637 1.5860001
0.77276587 -0.61066675 1.5940001
0.76773518 -0.60451812 1.5940001
0.77416325 -0.60647452 1.5940001
0.74481773 -0.59669268 1.5940002
0.75320214 -0.59669262 1.594
0.76682687 -0.59634328 1.594
0.75464785 -0.62346601 1.6090001
0.76487917 -0.6232776 1.6081113
0.77194881 -0.62176973 1.6010001
0.75558823 -0.61453247 1.6090001
0.76484805 -0.61561573 1.6059998
0.7717483 -0.61535352 1.6010001
0.74595702 -0.60508192 1.6070001
0.75534081 -0.60603374 1.603
0.7641291 -0.60532826 1.6010001
0.76352757 -0.59790945 1.6010001
0.74659741 -0.63042849 1.6160001
0.75368083 -0.63042849 1.6160001
0.74659741 -0.6261785 1.6160001
0.75297248 -0.62405336 1.6160001
0.74801409 -0.61484492 1.6160001
0.75339746 -0.61682826 1.6160001
0.74459863 -0.63212574 1.6240001
0.74554777 -0.62595642 1.6240001
0.75171709 -0.62358356 1.6240001
0.747446 -0.61646503 1.6240001
0.7159465 -0.63652754 1.6390002
0.72561264 -0.63509059 1.6390002
0.73522323 -0.63436067 1.6358889
0.74397445 -0.63380903 1.6320002
0.71871579 -0.62445796 1.6390002
0.72520214 -0.62585378 1.6390002
0.73683703 -0.62546623 1.6371335
0.74504751 -0.6248669 1.6320001
0.75112802 -0.62522465 1.6320001
0.71904027 -0.6172474 1.6355001
0.72537506 -0.61664033 1.6320001
0.73579335 -0.61769825 1.6348002
0.74545705 -0.61851192 1.6331668
0.71182787 -0.64252216 1.6470001
0.71529323 -0.63385892 1.6470002
0.72145367 -0.63385892 1.6470001
0.71644831 -0.62577331 1.6470002
0.6978749 -0.64419222 1.6550001
0.70512933 -0.64419228 1.655
0.71238375 -0.64419222 1.6550001
0.69642401 -0.6354869 1.655
0.70367843 -0.63867885 1.6550001
0.71445644 -0.63735235 1.6550001
0.68739831 -0.64293247 1.6630001
0.69483358 -0.64497352 1.6630001
0.70999569 -0.6414746 1.6630001
0.71291149 -0.64001667 1.6630001
0.68666935 -0.63710082 1.6630001
0.69395888 -0.63564295 1.6630001
0.70649672 -0.63593453 1.6630001
0.71509832 -0.63491404 1.6630001
0.66946387 -0.65188497 1.6710001
0.67532355 -0.65188497 1.6710001
0.68557787 -0.65188497 1.6710001
0.66946387 -0.64895517 1.6710001
0.67630017 -0.64602536 1.6710002
0.68411297 -0.64675778 1.6710002
0.71341115 -0.63723588 1.6710001
0.66739583 -0.65703714 1.6880001
0.67314672 -0.65496123 1.6826668
0.6760152 -0.64950478 1.6800001
0.66609836 -0.66163784 1.6960001
0.66609836 -0.65866423 1.6960001
0.66365421 -0.66365421 1.705
0.65475428 -0.66676819 1.7130002
0.6645155 -0.6645155 1.7130001
0.67277503 -0.66226292 1.7130001
0.65819436 -0.66423279 1.7220001
0.66513854 -0.66393089 1.7220001
0.67329049 -0.66272318 1.7220001
0.65970397 -0.65970397 1.7220001
0.66423279 -0.65970397 1.7220001
0.65404683 -0.67377442 1.7310001
0.67225689 -0.66315186 1.7310001
