# .PCD v0.7 - Point Cloud Data file format
VERSION 0.7
FIELDS x y z
SIZE 4 4 4
TYPE F F F
COUNT 1 1 1
WIDTH 527
HEIGHT 1
VIEWPOINT 0 0 0 1 0 0 0
POINTS 527
DATA ascii
0.84697568 -0.052560549 1.7130001
0.85448444 -0.052560549 1.7130001
0.84697568 -0.04955709 1.7130001
0.85448444 -0.048055362 1.7130002
0.85523528 -0.032287195 1.7130001
0.86049128 -0.033038057 1.7130001
0.85448438 -0.025529409 1.7130002
0.86049128 -0.025529411 1.7130001
0.85673702 -0.017269894 1.7130001
0.86049128 -0.015017301 1.7130001
0.83783913 -0.063404039 1.7220001
0.84312284 -0.062649235 1.7220001
0.84589046 -0.056862354 1.7220001
0.8589738 -0.055855941 1.7220001
0.86350268 -0.054346323 1.7220001
0.84916127 -0.0452886 1.7220001
0.85552329 -0.042916343 1.7220002
0.86380464 -0.043778982 1.7220001
0.84991616 -0.034721263 1.7220001
0.85552329 -0.035583902 1.7220002
0.86350268 -0.037740503 1.7220001
0.84870833 -0.025059694 1.7220001
0.85293531 -0.02566354 1.7220001
0.8499161 -0.01962506 1.7220001
0.85655844 -0.01720967 1.7220001
0.86400592 -0.013586581 1.7220001
0.86350268 -0.0075481003 1.7220001
0.86350268 0.0030192402 1.7220001
0.82781619 -0.071652599 1.7390001
0.83391428 -0.071652606 1.7390001
0.84001237 -0.071652599 1.7390001
0.82514828 -0.065935627 1.7390002
0.83570844 -0.065906525 1.7359234
0.84111524 -0.065396704 1.7350001
0.83770323 -0.055810355 1.7363336
0.84381258 -0.054106578 1.7342945
0.85334653 -0.057159543 1.7310002
0.83807319 -0.042588469 1.7350001
0.84417456 -0.044321641 1.7340772
0.85132313 -0.044007789 1.7310002
0.86953324 -0.047042809 1.7310001
0.83807319 -0.034983382 1.7350001
0.84394288 -0.034943055 1.7330002
0.85132313 -0.034902729 1.7310002
0.837479 -0.025430221 1.7355716
0.84394282 -0.025827473 1.7330002
0.85132313 -0.028832689 1.7310001
0.83594704 -0.018802455 1.7390001
0.84437305 -0.015843272 1.7361767
0.85448986 -0.014234277 1.7346365
0.86141872 -0.011393598 1.733
0.84672022 -0.0064029978 1.7390002
0.85569316 -0.0054447264 1.7390003
0.86428905 -0.0040926174 1.7340772
0.85830665 0.0045735701 1.7390001
0.86397302 0.005115828 1.735364
0.84915948 0.019818803 1.7390001
0.85553473 0.015106639 1.7390002
0.86465406 0.015198243 1.7334003
0.84915948 0.025916897 1.7390001
0.85525763 0.025916899 1.7390002
0.86551583 0.025413288 1.7365389
0.87202734 0.028965943 1.7390001
0.85678208 0.033539511 1.7390001
0.86440468 0.035064038 1.7390002
0.8720274 0.035064042 1.7390002
0.86562437 0.04299156 1.7390002
0.87126505 0.043448918 1.7390001
0.83516526 -0.062828943 1.748
0.8366977 -0.056699298 1.748
0.83823007 -0.044439986 1.748
0.84129494 -0.047504812 1.748
0.83669776 -0.035245508 1.748
0.83639127 -0.026663993 1.748
0.8366977 -0.016856546 1.748
0.84282732 -0.012259306 1.748
0.846403 -0.0045972401 1.748
0.85508662 -0.0015324133 1.748
0.85508657 0.0045972397 1.7479999
0.85240495 0.014941029 1.748
0.85048938 0.026051026 1.748
0.85416716 0.035551988 1.748
0.86274868 0.038310334 1.748
0.85623598 0.043290678 1.748
0.8653757 0.045315649 1.7480001
0.8780728 0.045972399 1.748
0.86734599 0.053634465 1.748
0.87528664 0.054748952 1.7479999
0.87654042 0.065893777 1.748
0.82714289 -0.061612137 1.7570001
0.83125037 -0.061098702 1.7570002
0.83726484 -0.054350708 1.7570002
0.83638459 -0.044668797 1.7570001
0.83484435 -0.035426978 1.7570002
0.83506447 -0.025304984 1.7570002
0.83792502 -0.015403034 1.7570001
0.84408623 -0.010782124 1.7570001
0.84524143 -0.0042358343 1.7570001
0.84601158 0.005005986 1.7570001
0.85178775 0.0046209106 1.7570002
0.84562653 0.012322428 1.7570002
0.85178775 0.013862731 1.7570002
0.85178775 0.024644855 1.7570001
0.85178775 0.035426982 1.7570002
0.85425228 0.045284919 1.7570002
0.86102957 0.047749404 1.7570001
0.85794896 0.052370314 1.7570001
0.86411017 0.053910617 1.7570001
0.86719078 0.064692743 1.7570001
0.87335199 0.064692743 1.7570002
0.87540573 0.074447997 1.7570001
0.88259381 0.075474873 1.7570002
0.8795132 0.081636079 1.7570001
0.88259381 0.081636079 1.7570001
0.83499229 -0.054186769 1.766
0.83447617 -0.044897608 1.7660002
0.83447617 -0.035608448 1.7660002
0.833444 -0.024255026 1.7659999
0.83525026 -0.016256031 1.766
0.84170103 -0.011869482 1.7660002
0.84221715 -0.0046445802 1.766
0.84288067 0.0042022392 1.766
0.84428144 0.013933741 1.766
0.85305452 0.017030127 1.766
0.84840989 0.024771091 1.7659999
0.85305452 0.024771092 1.766
0.84995812 0.035608448 1.7660002
0.85305452 0.035608448 1.7660002
0.84995812 0.043349411 1.766
0.85382861 0.045671701 1.766
0.8580088 0.054186769 1.766
0.86234367 0.057283152 1.766
0.85792035 0.064360604 1.766
0.86544007 0.065024123 1.7660002
0.85924727 0.072765082 1.766
0.86544007 0.075861469 1.7659999
0.87349075 0.077100031 1.766
0.88092196 0.078957856 1.766
0.86647218 0.084118508 1.766
0.87472928 0.085150637 1.7659999
0.8835761 0.086035326 1.766
0.86698824 0.092891604 1.766
0.87524527 0.093407676 1.766
0.88401836 0.09443979 1.7659999
0.88463765 0.10465787 1.766
0.83608758 -0.052936643 1.7760001
0.83608758 -0.045151841 1.7760003
0.82830274 -0.032696161 1.7760001
0.83484203 -0.0351873 1.7760003
0.82736856 -0.024288578 1.7760003
0.83297366 -0.024911359 1.7760001
0.82585615 -0.014457488 1.7760003
0.83608758 -0.013493653 1.7760003
0.84231544 -0.01089872 1.7760001
0.83764458 -0.0046708807 1.7760003
0.84231544 -0.0046708803 1.7760003
0.83764458 0.0077848006 1.7760001
0.84231544 0.0046708803 1.7760003
0.83795595 0.013389856 1.7760003
0.84418374 0.015258208 1.7760003
0.84646732 0.024392374 1.7760001
0.84854329 0.035810083 1.7760003
0.85165715 0.035810083 1.7760003
0.84854323 0.042037923 1.7760001
0.85243565 0.045930322 1.7760001
0.85477096 0.054493602 1.7760001
0.86099887 0.054493602 1.7760001
0.85601664 0.065080933 1.7760003
0.85554951 0.073177129 1.7760001
0.86203688 0.075772054 1.7760003
0.857885 0.085632801 1.7760003
0.86372352 0.086022042 1.7760001
0.87034065 0.088746727 1.7760001
0.85788494 0.091860645 1.7760001
0.86515081 0.093936592 1.7760003
0.87594569 0.097465694 1.7760003
0.85788494 0.10743024 1.7760001
0.86450207 0.10470556 1.7760001
0.87501162 0.10431632 1.7760004
0.88357484 0.10509481 1.7760001
0.85788494 0.11054416 1.7760001
0.86411285 0.11054417 1.7760003
0.87604946 0.11158213 1.7760003
0.88625622 0.11504205 1.7760001
0.89213818 0.11677201 1.7760003
0.8890242 0.12455681 1.7760001
0.89213812 0.12455681 1.7760001
0.83719474 -0.053204902 1.7850001
0.83594286 -0.04475471 1.7850001
0.83510828 -0.038078018 1.7850002
0.83510828 -0.011997184 1.7850002
0.83594286 -0.0053204903 1.7850001
0.81841654 0.0078242496 1.7850001
0.82154626 0.0078242496 1.7850001
0.83594286 0.0053204903 1.7850001
0.84188932 0.0031297002 1.7850001
0.81841654 0.012518801 1.7850001
0.82154626 0.012518801 1.7850001
0.83562988 0.014083649 1.7850001
0.84032446 0.01721335 1.7850001
0.83719474 0.0219079 1.7850001
0.84380192 0.024863729 1.7850001
0.84971356 0.035991549 1.7850002
0.84971356 0.04225095 1.7850001
0.85284328 0.046945501 1.7850001
0.85284328 0.054769751 1.7850002
0.85753781 0.062593997 1.7850001
0.85753781 0.078242496 1.7850001
0.85785073 0.085440814 1.7850001
0.85910261 0.095455848 1.7850002
0.86473608 0.09733367 1.7850001
0.85910261 0.10484495 1.7850002
0.86327553 0.10275849 1.7850002
0.85910261 0.11423405 1.7850002
0.86536205 0.11579891 1.7850001
0.87475121 0.11579889 1.7850001
0.88414025 0.11736374 1.7850002
0.85910261 0.12049345 1.7850001
0.86564654 0.12476122 1.7850001
0.87506419 0.12424909 1.7850001
0.88414025 0.12518799 1.7850001
0.89227742 0.12800474 1.7850001
0.87788087 0.13301225 1.7850001
0.88414025 0.13301225 1.7850001
0.89352936 0.13301226 1.7850002
0.83422625 -0.0042688656 1.794
0.8275758 0.004089124 1.794
0.83460063 0.0047182199 1.794
0.81939751 0.01730014 1.794
0.82694674 0.015412852 1.794
0.83355224 0.014154661 1.794
0.81939751 0.022018358 1.794
0.82608169 0.023197915 1.7939999
0.83512491 0.025163841 1.7940001
0.84298861 0.028309319 1.794
0.84495455 0.035779834 1.7939999
0.85085237 0.036173023 1.794
0.84770685 0.045609459 1.794
0.85211051 0.046238557 1.794
0.84613407 0.055045903 1.794
0.8524251 0.055045899 1.794
0.84613407 0.064482346 1.794
0.85399789 0.064482346 1.794
0.84770691 0.073918782 1.794
0.85399789 0.073918782 1.794
0.85504633 0.084403709 1.794
0.86028874 0.089646176 1.794
0.8602888 0.095937133 1.794
0.8602888 0.10537358 1.794
0.85714328 0.11323728 1.794
0.8602888 0.11481002 1.794
0.86186147 0.12581921 1.794
0.86657977 0.13368291 1.794
0.87664527 0.13525562 1.794
0.88590199 0.1377271 1.794
0.89488906 0.13840112 1.794
0.90118003 0.13840112 1.794
0.88545263 0.14469206 1.794
0.894889 0.14626482 1.794
0.90118003 0.14469206 1.794
0.89551812 0.15381399 1.794
0.83661705 0.0015815067 1.8040001
0.82317424 0.026094861 1.8040001
0.82712799 0.030048626 1.8040001
0.83529919 0.035056733 1.8040003
0.84373391 0.037165407 1.8040001
0.83819854 0.045863695 1.8040001
0.84610611 0.045863695 1.804
0.85243213 0.045863695 1.8040001
0.83661711 0.05535274 1.804
0.84452462 0.05535274 1.8040001
0.84452462 0.064841777 1.8040001
0.84650147 0.074726194 1.804
0.8476876 0.083819859 1.8040001
0.8536973 0.084452465 1.8040001
0.8476876 0.090145886 1.8040001
0.85530758 0.095321722 1.8040003
0.86192119 0.096471906 1.8040003
0.85875815 0.10596096 1.8040003
0.86192119 0.10596095 1.8040003
0.85875815 0.11544999 1.8040003
0.86192113 0.118613 1.8040001
0.85875815 0.12493902 1.8040003
0.86271185 0.12414827 1.8040001
0.85875815 0.13284656 1.8040001
0.86418045 0.13487993 1.8040001
0.87457323 0.14391714 1.804
0.88248074 0.14549862 1.8040001
0.87417787 0.15301077 1.804
0.88434982 0.15455635 1.8040003
0.89355135 0.15599407 1.8040003
0.90557069 0.15593655 1.8040001
0.8955642 0.16577066 1.8040003
0.90462184 0.16605821 1.8040001
0.89671433 0.17554726 1.804
0.90462184 0.17554726 1.8040001
0.90462184 0.18187328 1.8040001
0.82648629 0.031787932 1.8130001
0.83252591 0.037191883 1.8130001
0.83602273 0.046092506 1.8130001
0.83284378 0.055628888 1.8130001
0.83634055 0.064529501 1.8130001
0.84238023 0.065165266 1.8130001
0.83761203 0.074701652 1.8130001
0.84306151 0.074247532 1.8130001
0.83761203 0.084238023 1.8130001
0.84396964 0.08423803 1.813
0.83761203 0.093774401 1.8130001
0.84396964 0.093774408 1.813
0.85191661 0.095363796 1.8130001
0.83761203 0.10013199 1.8130001
0.84079081 0.10013199 1.8130001
0.85464138 0.10558136 1.813
0.85708219 0.11642329 1.813
0.85859215 0.12492658 1.8130001
0.85986364 0.13509873 1.8130001
0.86304241 0.1382775 1.8130001
0.85986364 0.14145631 1.8130001
0.86622125 0.1446351 1.813
0.8725788 0.14463511 1.8130001
0.85986364 0.15576088 1.8130001
0.86667538 0.15507971 1.8130001
0.8725788 0.15417147 1.8130001
0.88211513 0.15735027 1.8130001
0.85986364 0.16211846 1.8130001
0.86622119 0.16370784 1.813
0.87575752 0.16370784 1.813
0.88489664 0.16410521 1.813
0.89165151 0.16529725 1.8130001
0.8670159 0.17086016 1.8130001
0.8762117 0.17233601 1.8130001
0.88558292 0.17440017 1.813
0.89324093 0.17483363 1.813
0.90754545 0.17642303 1.8130001
0.91072422 0.17642303 1.8130001
0.88688338 0.1875488 1.8130001
0.89522773 0.18556206 1.813
0.90396941 0.18635675 1.813
0.91072422 0.1875488 1.8130001
0.88688338 0.19231701 1.8130001
0.89694965 0.1933766 1.8130001
0.90436673 0.1954958 1.813
0.91072428 0.19549581 1.8130001
0.90627402 0.20439641 1.8130001
0.91072428 0.20503217 1.8130001
0.90754545 0.21774735 1.8130001
0.91072422 0.21774735 1.8130001
0.82944673 0.038355917 1.8230001
0.83264309 0.038355917 1.8230001
0.82944673 0.044748574 1.8230001
0.83456087 0.045707472 1.8230002
0.82784855 0.059132043 1.8230001
0.82625049 0.063926533 1.8230002
0.83663851 0.06632378 1.8230001
0.83823663 0.074314594 1.8230001
0.84862483 0.10388061 1.8230002
0.85182112 0.10388061 1.8230002
0.84862477 0.11506776 1.8230001
0.85364753 0.11483945 1.8230002
0.85821372 0.12305857 1.8230001
0.86141002 0.12945123 1.8230001
0.85821378 0.1358439 1.8230002
0.86141002 0.13584389 1.8230002
0.85821372 0.14703102 1.8230001
0.86268854 0.14607213 1.8230002
0.85821372 0.15342368 1.8230001
0.8633278 0.15374331 1.8230002
0.87099904 0.15182552 1.8230001
0.8630082 0.16461082 1.8230001
0.86567181 0.17313436 1.8230002
0.87419534 0.17633069 1.8230002
0.880588 0.17739613 1.8230001
0.88442367 0.181871 1.8230002
0.89177513 0.18378878 1.8230001
0.89529103 0.19689374 1.8230002
0.90296227 0.19977042 1.8230001
0.90524536 0.20661969 1.8230002
0.9141494 0.21415389 1.8230001
0.83271116 0.047886517 1.8330001
0.82756895 0.057849478 1.8330001
0.83445585 0.055324301 1.8330002
0.82756895 0.069097988 1.8330001
0.83528227 0.067169681 1.8330001
0.82756895 0.073918775 1.8330001
0.83463949 0.074882939 1.8330001
0.84042442 0.077132642 1.8330001
0.83721054 0.085167289 1.8330001
0.84042442 0.085167289 1.8330001
0.83560359 0.093201935 1.8330001
0.84235269 0.0941661 1.8330001
0.8436383 0.10445045 1.8330002
0.85006595 0.10605738 1.8330001
0.84604865 0.11328857 1.8330001
0.85006595 0.11409204 1.8330001
0.84685212 0.12212668 1.8330001
0.85542232 0.1240907 1.8329999
0.86292142 0.12694748 1.8330001
0.85756487 0.13444647 1.8329999
0.86292142 0.13016133 1.8330001
0.85842198 0.14558785 1.8330001
0.86292142 0.14301677 1.8330001
0.85970753 0.15587221 1.8330001
0.86292142 0.15908608 1.8330001
0.86420697 0.16615658 1.8330001
0.86521703 0.17561451 1.8330002
0.87416995 0.17836924 1.8330001
0.86774218 0.18158309 1.8330001
0.87577689 0.18319003 1.8330001
0.88477564 0.18543974 1.8330001
0.89184618 0.18801081 1.8330001
0.88782883 0.19363506 1.8330001
0.89184618 0.19443855 1.8330001
0.8886323 0.2040801 1.8330001
0.89460099 0.20499834 1.8330002
0.90309465 0.20568705 1.8330001
0.83208376 0.046855204 1.8430001
0.83208376 0.051702291 1.8430001
0.82885242 0.079169132 1.8430001
0.83660775 0.077230297 1.8430001
0.82804453 0.084824078 1.8430001
0.83571911 0.085631929 1.8430002
0.84630197 0.085631922 1.8430001
0.82608277 0.096249364 1.8430002
0.83439195 0.095787734 1.8430002
0.84339362 0.098557495 1.8430001
0.8191582 0.10663598 1.8430001
0.82602495 0.1054242 1.8430002
0.83531517 0.10502028 1.8430002
0.8425858 0.10582814 1.8430001
0.8191582 0.11148307 1.8430001
0.82691354 0.11342191 1.8430001
0.83531523 0.11471447 1.8430002
0.84460539 0.11511838 1.8430002
0.82885242 0.12117725 1.8430001
0.83596146 0.12246981 1.8430001
0.84500933 0.12440864 1.8430002
0.85308784 0.12764002 1.8430001
0.84547102 0.13317958 1.8430002
0.85429955 0.13450675 1.8430002
0.84824073 0.14379701 1.8430002
0.85470349 0.14379701 1.8430002
0.85591525 0.15389509 1.8430002
0.8611663 0.15510687 1.8430001
0.85631925 0.16964814 1.8430001
0.86278212 0.16641676 1.8430002
0.85631919 0.17611095 1.8430002
0.862782 0.17611092 1.8430002
0.85793495 0.18257372 1.8430001
0.86532098 0.18534347 1.8430002
0.87344563 0.18774395 1.8430001
0.88378608 0.18903653 1.8430002
0.86601341 0.1938836 1.8430001
0.87409198 0.1938836 1.8430002
0.88378602 0.1954993 1.8430002
0.89024884 0.19711499 1.8430001
0.83659863 0.086096555 1.853
0.82360286 0.095843337 1.853
0.82360291 0.10450715 1.853
0.82360291 0.11587839 1.853
0.83010072 0.11696135 1.853
0.82603955 0.12427144 1.853
0.83375585 0.12630202 1.8529999
0.84309644 0.1283326 1.853
0.83594888 0.13450557 1.853
0.84504575 0.13613002 1.853
0.83659863 0.14132831 1.853
0.84727365 0.14411312 1.853
0.8495943 0.15432402 1.853
0.85414279 0.15497379 1.853
0.8495943 0.16407079 1.853
0.85609215 0.1640708 1.853
0.86259001 0.16569525 1.853
0.8495943 0.17381757 1.853
0.85446763 0.17381757 1.853
0.8495943 0.18031542 1.853
0.85609215 0.18356435 1.853
0.86421448 0.18681328 1.853
0.85934108 0.19168666 1.853
0.82478112 0.099627033 1.863
0.82369232 0.10615995 1.8630002
0.82260346 0.11595933 1.8630002
0.82608765 0.126412 1.8630002
0.82804757 0.13229163 1.863
0.83294725 0.13555808 1.863
0.8443799 0.14699072 1.8630002
0.84568644 0.15385027 1.8630002
0.85091281 0.15515685 1.8630002
0.84764642 0.16495624 1.8630002
0.85091281 0.16495624 1.8630002
0.84764642 0.17475562 1.8630002
0.85091281 0.17475562 1.8630002
0.82920831 0.096877806 1.8730001
0.82592434 0.12479175 1.8730001
0.82920831 0.13628572 1.8730001
0.83358705 0.13847508 1.8730001
0.82920831 0.14613771 1.8730001
0.83577633 0.1461377 1.8730003
0.84234428 0.1477797 1.8730001
0.83577633 0.15598968 1.8730003
0.84515917 0.15692799 1.8730003
0.83741832 0.16419967 1.8730001
0.84562826 0.16584167 1.8730003
0.84891236 0.17569366 1.8730001
0.83033395 0.12050573 1.8830001
0.83033395 0.13371184 1.8830001
0.82703245 0.14361642 1.8830001
0.83033395 0.14361642 1.8830001
0.82703245 0.153521 1.8830001
0.83165455 0.1541813 1.8830003
0.82703245 0.16012405 1.8830001
0.83322275 0.16383825 1.8830003
0.83186376 0.13449293 1.8940001
0.82854289 0.14445537 1.8940001
0.82688254 0.15441781 1.8940001
0.83291745 0.13854139 1.904
0.82957911 0.14688726 1.904
0.84108716 0.11919599 1.9150001
0.84108722 0.12591127 1.9150002
0.83772951 0.13598415 1.9150001
0.83437192 0.14269942 1.9150001
0.84591848 0.11481529 1.9260001
0.83916461 0.13676527 1.9260001
0.84691608 0.12389755 1.9360002
0.84420055 0.13340202 1.9360001
0.8517282 0.11777404 1.9470001
0.85526025 0.11678252 1.9590001
0.86351669 0.1088031 1.9700001
