# .PCD v0.7 - Point Cloud Data file format
VERSION 0.7
FIELDS x y z
SIZE 4 4 4
TYPE F F F
COUNT 1 1 1
WIDTH 111
HEIGHT 1
VIEWPOINT 0 0 0 1 0 0 0
POINTS 111
DATA ascii
0.89861214 -0.61457354 1.8040001
0.89829582 -0.6088801 1.8040001
0.91390312 -0.63099051 1.8130001
0.90754545 -0.62622225 1.8130001
0.91390312 -0.62781167 1.8130001
0.90436673 -0.6087389 1.8130001
0.90615857 -0.62568092 1.8230001
0.90296233 -0.61529291 1.8230002
0.90935487 -0.60570395 1.8230002
0.90791541 -0.63152349 1.8330001
0.90791541 -0.62830961 1.8330001
0.90791541 -0.61224037 1.8330001
0.9111293 -0.61224037 1.8330001
0.90791541 -0.60741955 1.8330001
0.91353971 -0.60500914 1.8330001
0.85631925 -0.64143157 1.8430001
0.8611663 -0.64143157 1.8430001
0.85416496 -0.63496888 1.8430002
0.8611663 -0.63820022 1.8430001
0.89751947 -0.63254529 1.8430001
0.85308784 -0.628506 1.8430001
0.88424778 -0.62435138 1.8430002
0.895096 -0.62527466 1.8430003
0.88378608 -0.61881179 1.8430002
0.89509594 -0.61881179 1.8430001
0.9068675 -0.61511886 1.8430002
0.90640581 -0.60911763 1.8430002
0.85555065 -0.64491194 1.853
0.8671385 -0.64621156 1.853
0.85284323 -0.63678962 1.853
0.86475599 -0.63570666 1.853
0.88695693 -0.63354069 1.853
0.86421448 -0.62866729 1.853
0.88208359 -0.6237939 1.853
0.88695693 -0.6172961 1.853
0.89291334 -0.61783761 1.853
0.86397862 -0.65492523 1.8630002
0.87214482 -0.6385929 1.863
0.80950439 -0.66172463 1.8730001
0.81672919 -0.66303825 1.8730001
0.823735 -0.66281933 1.8730001
0.80950439 -0.65844071 1.8730001
0.8170107 -0.65562582 1.8730003
0.82551384 -0.65474617 1.8730001
0.85876429 -0.65351474 1.8730001
0.81935638 -0.64858872 1.8730001
0.82701898 -0.64530468 1.8730001
0.83249235 -0.64530468 1.8730001
0.85876435 -0.64530474 1.8730001
0.82756633 -0.63709474 1.8730001
0.83249235 -0.63709474 1.8730001
0.85876429 -0.63873672 1.8730001
0.86204827 -0.63873672 1.8730001
0.82703245 -0.67186069 1.8830001
0.83033395 -0.67186069 1.8830001
0.81052482 -0.66195613 1.8830001
0.83429587 -0.66459739 1.8830003
0.80722326 -0.65535307 1.8830001
0.81382644 -0.65535307 1.8830003
0.82042938 -0.65205151 1.8830001
0.83473605 -0.65535307 1.8830001
0.84354013 -0.65370226 1.8830003
0.80722326 -0.64379776 1.8830001
0.81382638 -0.64544851 1.8830003
0.82373095 -0.64544851 1.8830003
0.84354013 -0.64544851 1.8830003
0.80722326 -0.63554394 1.8830001
0.81382638 -0.63554394 1.8830003
0.82373095 -0.63554394 1.8830003
0.83363551 -0.63389319 1.8830003
0.84354013 -0.63554394 1.8830003
0.85261929 -0.63802004 1.8830001
0.80590266 -0.62629962 1.8830003
0.81382638 -0.62563932 1.8830003
0.82331824 -0.62605202 1.8830003
0.8328101 -0.62811542 1.8830001
0.84023857 -0.62894082 1.8830001
0.80722326 -0.61738551 1.8830001
0.81423908 -0.61614746 1.8830003
0.82042938 -0.61738551 1.8830001
0.81547713 -0.60913169 1.8830001
0.81382644 -0.58271945 1.8830001
0.82042938 -0.58271945 1.8830001
0.80722326 -0.57941794 1.8830001
0.81382632 -0.57941794 1.8830001
0.82042938 -0.57941794 1.8830001
0.81193882 -0.65253985 1.8940001
0.80861807 -0.63593578 1.8940001
0.82854289 -0.62265247 1.8940001
0.83601475 -0.62680346 1.8940001
0.84514701 -0.62763369 1.8940001
0.82721466 -0.61534673 1.8940001
0.82588625 -0.60671264 1.8940001
0.83186376 -0.60272765 1.8940001
0.81525964 -0.59276521 1.8940001
0.82688248 -0.59774637 1.8940001
0.83186376 -0.59940678 1.8940001
0.81692004 -0.58944434 1.8940001
0.82356167 -0.58944434 1.8940001
0.81288743 -0.65431595 1.904
0.81789494 -0.60424072 1.904
0.82568443 -0.60590994 1.9040002
0.83959419 -0.60424078 1.904
0.84460169 -0.60424072 1.904
0.81622577 -0.59589487 1.904
0.82624078 -0.59756404 1.904
0.83625579 -0.59756404 1.904
0.81622577 -0.58699262 1.904
0.82429904 -0.61276811 1.9150002
0.81758374 -0.60773164 1.9150001
0.83772951 -0.58758581 1.9150001
