# .PCD v0.7 - Point Cloud Data file format
VERSION 0.7
FIELDS x y z intensity
SIZE 4 4 4 4
TYPE F F F F
COUNT 1 1 1 1
WIDTH 1994
HEIGHT 1
VIEWPOINT 0 0 0 1 0 0 0
POINTS 1994
DATA ascii
0.38999999 0 0.14 0
0 0.0099999998 0.14 0
0.38999999 0.0099999998 0.14 0
0 0.02 0.14 0
0.38999999 0.02 0.14 0
0 0.029999999 0.14 0
0.38999999 0.029999999 0.14 0
0 0.039999999 0.14 0
0.38999999 0.039999999 0.14 0
0 0.050000001 0.14 0
0.38999999 0.050000001 0.14 0
0 0.059999999 0.14 0
0.38999999 0.059999999 0.14 0
0 0.07 0.14 0
0.38999999 0.07 0.14 0
0 0.079999998 0.14 0
0.38999999 0.079999998 0.14 0
0 0.090000004 0.14 0
0.38999999 0.090000004 0.14 7.4505806e-09
0 0.1 0.14 0
0.38999999 0.1 0.14 7.4505806e-09
0 0.11 0.14 0
0.38999999 0.11 0.14 7.4505806e-09
0 0.12 0.14 0
0.38999999 0.12 0.14 7.4505806e-09
0 0.13 0.14 0
0.38999999 0.13 0.14 7.4505806e-09
0 0.14 0.14 0
0.38999999 0.14 0.14 0
0 0.15000001 0.14 0
0.38999999 0.15000001 0.14 0
0 0.16 0.14 0
0.38999999 0.16 0.14 0
0 0.17 0.14 0
0.38999999 0.17 0.14 0
0 0.18000001 0.14 0
0.38999999 0.18000001 0.14 0
0 0.19 0.14 0
0.38999999 0.19 0.14 0
0 0.2 0.14 0
0.38999999 0.2 0.14 0
0 0.20999999 0.14 0
0.38999999 0.20999999 0.14 0
0 0.22 0.14 0
0.38999999 0.22 0.14 0
0 0.23 0.14 0
0 0.23999999 0.14 0
0.0099999998 0.23999999 0.14 0
0.02 0.23999999 0.14 0
0.029999999 0.23999999 0.14 0
0.039999999 0.23999999 0.14 0
0.050000001 0.23999999 0.14 0
0.059999999 0.23999999 0.14 0
0.07 0.23999999 0.14 0
0.079999998 0.23999999 0.14 0
0.090000004 0.23999999 0.14 7.4505806e-09
0.14 0.23999999 0.14 0
0.15000001 0.23999999 0.14 0
0.16 0.23999999 0.14 0
0.17 0.23999999 0.14 0
0.18000001 0.23999999 0.14 0
0.19 0.23999999 0.14 0
0.2 0.23999999 0.14 0
0.20999999 0.23999999 0.14 0
0.22 0.23999999 0.14 0
0.23 0.23999999 0.14 0
0.23999999 0.23999999 0.14 0
0.25 0.23999999 0.14 0
0.25999999 0.23999999 0.14 0
-1794 1790.0094 -165.19116 7.4505806e-09
-1794 1790.0094 -165.19116 7.4505806e-09
-1794 1790.0094 -165.19116 7.4505806e-09
-596.36682 0.039559193 -0.066407785 7.4505806e-09
-596.36682 0.039559193 -0.066407785 7.4505806e-09
-596.36682 0.039559193 -0.066407785 7.4505806e-09
0.37 0.23999999 0.14 0
626.79993 1253.5999 0.12715372 0
0 0.25 0.125 0
0 0 0.15000001 0
0.0099999998 0 0.15000001 0
0.02 0 0.15000001 0
0.029999999 0 0.15000001 0
0.039999999 0 0.15000001 0
0.050000001 0 0.15000001 0
0.059999999 0 0.15000001 0
0.07 0 0.15000001 0
0.079999998 0 0.15000001 0
0.090000004 0 0.15000001 0
0.1 0 0.15000001 0
0.11 0 0.15000001 0
0.12 0 0.15000001 0
0.13 0 0.15000001 0
0.14 0 0.15000001 0
0.15000001 0 0.15000001 0
0.16 0 0.15000001 0
0.17 0 0.15000001 0
0.18000001 0 0.15000001 0
0.19 0 0.15000001 0
0.2 0 0.15000001 0
0.20999999 0 0.15000001 0
0.22 0 0.15000001 0
0.23 0 0.15000001 0
0.23999999 0 0.15000001 0
0.25 0 0.15000001 0
0.25999999 0 0.15000001 0
0.27000001 0 0.15000001 0
0.28 0 0.15000001 0
0.28999999 0 0.15000001 0
0.30000001 0 0.15000001 0
0.31 0 0.15000001 0
0.31999999 0 0.15000001 0
0.33000001 0 0.15000001 0
0.34 0 0.15000001 0
0.34999999 0 0.15000001 0
0.36000001 0 0.15000001 0
0.37 0 0.15000001 0
0.38 0 0.15000001 0
0.38999999 0 0.15000001 0
0 0.0099999998 0.15000001 0
0.38999999 0.0099999998 0.15000001 0
0 0.02 0.15000001 0
0.38999999 0.02 0.15000001 0
0 0.029999999 0.15000001 0
0.38999999 0.029999999 0.15000001 0
0 0.039999999 0.15000001 0
0.38999999 0.039999999 0.15000001 0
0 0.050000001 0.15000001 0
0.38999999 0.050000001 0.15000001 0
0 0.059999999 0.15000001 0
0.38999999 0.059999999 0.15000001 0
0 0.07 0.15000001 0
0.0073018074 545.90234 -351.02319 0
0 0.079999998 0.15000001 0
1.2912989 5206.2969 -557.96533 0
0 0.090000004 0.15000001 0
0.38999957 0.085699119 0.15474373 0
0 0.1 0.15000001 0
0.38999999 0.1 0.15000001 0
0 0.11 0.15000001 0
0.38999999 8 0.14941406 0
0 0.12 0.15000001 0
0.38999999 128 0.15039062 0
0 0.13 0.15000001 0
0.39000994 0 2048 0
0 0.14 0.15000001 0
0.38999999 0.14 0.15000001 0
0 0.15000001 0.15000001 0
0.38999999 0.15000001 0.15000001 0
0 0.16 0.15000001 0
0.38999999 0.16 0.15000001 0
0 0.17 0.15000001 0
0.38999999 0.17 0.15000001 0
0 0.18000001 0.15000001 0
0.081455231 1403.4141 363.25 0
0 0.19 0.15000001 0
0.49849129 -49.914062 -808.0882 0
0 0.2 0.15000001 0
0 0.20999999 0.15000001 0
0 0.22 0.15000001 0
0.38999999 0.22 0.15000001 0
0 0.23 0.15000001 0
0 0.23999999 0.15000001 0
0.0099999998 0.23999999 0.15000001 0
0.02 0.23999999 0.15000001 0
0.029999999 0.23999999 0.15000001 0
0.039999999 0.23999999 0.15000001 0
0.055236816 0.24000067 0.079833984 0
-1847.9766 -0.040139675 -3192.2866 0
0.078437805 0.24000065 0.077758789 0
-1024 0.011591971 -1.2969622e+08 0
0.090000004 0.23999999 0.15000001 0
0.095718384 0.24000007 0.14000005 0
0.11 0.23999999 0.15000001 0
0.11083984 0.24000004 0.13999991 0
0.1399785 0.24000004 0.1550293 0
0.14 0.23999999 0.15000001 0
0 -0.37862849 1536 0
0.17 0.23999999 0.15000001 0
246.625 0.125 -1536 0
-6330.75 -4 8192 0
0.20410156 0.2399981 0.140625 0
0.22 0.23999999 0.15000001 0
0 0.34124756 1024 0
818.75 0.5 -1024 0
253.25 0.5 -2048 0
0.27062988 0.23999983 0.15966797 0
0.26989746 0.24000016 0.125 0
0.28979492 0.24000034 0.1496582 0
0 0.4375 -960 0
2048 -0.045771241 0 0
4 0 32768 0
0.5 -0.25 0 0
-2560 -0.11067179 0 0
-320 0.296875 -704 0
0.35974121 0.23999991 0.14916992 0
0.37 0.23999999 0.15000001 0
0 0 0.16 0
0.0099999998 0 0.16 0
0.02 0 0.16 0
0.029999999 0 0.16 0
0.039999999 0 0.16 0
0.050000001 0 0.16 0
0.059999999 0 0.16 0
0.07 0 0.16 0
0.079999998 0 0.16 0
0.090000004 0 0.16 0
0.1 0 0.16 0
0.11 0 0.16 0
0.12 0 0.16 0
0.13 0 0.16 0
0.14 0 0.16 0
0.15000001 0 0.16 0
0.16 0 0.16 0
0.17 0 0.16 0
0.18000001 0 0.16 0
0.19 0 0.16 0
0.2 0 0.16 0
0.20999999 0 0.16 0
0.22 0 0.16 0
0.23 0 0.16 0
0.23999999 0 0.16 0
0.25 0 0.16 0
0.25999999 0 0.16 0
0.27000001 0 0.16 0
0.28 0 0.16 0
0.28999999 0 0.16 0
0.30000001 0 0.16 0
0.31 0 0.16 0
0.31999999 0 0.16 0
0.33000001 0 0.16 0
0.34 0 0.16 0
0.34999999 0 0.16 0
0.36000001 0 0.16 0
0.37 0 0.16 0
0.38 0 0.16 0
0.38999999 0 0.16 0
0 0.0099999998 0.16 0
0.38999999 0.0099999998 0.16 0
0 0.02 0.16 0
0.38999999 0.02 0.16 0
0 0.029999999 0.16 0
0.38999999 0.029999999 0.16 0
0 0.039999999 0.16 0
0.38999999 0.039999999 0.16 0
0 0.050000001 0.16 0
0.38999999 0.050000001 0.16 0
0 0.059999999 0.16 0
0.38999999 0.059999999 0.16 0
0 0.07 0.16 0
1.0416565 -971.3125 -1468.605 0
0 0.079999998 0.16 0
0.64385223 7914.125 2222.2607 0
0 0.090000004 0.16 0
0.39000118 0.091064453 0.15551758 0
0 0.1 0.16 0
0.38999957 0.085699119 0.15474373 0
0 0.11 0.16 0
0.38999999 136 0.15429688 0
0 0.12 0.16 0
0.39000487 0 -2048 0
0 0.13 0.16 0
0.38999999 0.13 0.16 0
0 0.14 0.16 0
0.38999999 0.14 0.16 0
0 0.15000001 0.16 0
0.38999999 0.15000001 0.16 0
0 0.16 0.16 0
0.38999999 0.16 0.16 0
0 0.17 0.16 0
0.38999999 0.17 0.16 0
0 0.18000001 0.16 0
-0.096405029 -913 399.41016 0
0 0.19 0.16 0
1.8339233 2934.75 -1616 0
0 0.2 0.16 0
0 0.20999999 0.16 0
0 0.22 0.16 0
0.38999999 0.22 0.16 0
0 0.23 0.16 0
0 0.23999999 0.16 0
0.0099999998 0.23999999 0.16 0
0.02 0.23999999 0.16 0
0.029999999 0.23999999 0.16 0
0.039999999 0.23999999 0.16 0
0.0234375 0.2399826 0.0625 0
0.015625 0.2399826 0.0625 0
0.060005188 0.23999691 0.140625 0
2048 -0.25 1024 0
0.090000004 0.23999999 0.16 0
0.1 0.23999999 0.16 0
0.11 0.23999999 0.16 0
0.12 0.23999999 0.16 0
0.1399785 0.24000004 0.1550293 0
0.14 0.23999999 0.16 0
0.16 0.23999999 0.16 0
0.17 0.23999999 0.16 0
-848 0.5 0 0
-469.28125 0.25 2048 0
-2146.4104 0.239943 0 0
0.23632812 0.23999786 0.16601562 0
0.22 0.23999999 0.16 0
0.23999999 0.23999999 0.16 0
-270.625 0.25 3072 0
521.3125 -0.5 0 0
0.27062988 0.23999983 0.15966797 0
595.20203 -0.34948754 -0.58165109 0
0.28979492 0.24000034 0.1496582 0
0 0.4375 -960 0
0.30989861 0.23999995 0.16503906 0
4 0 32768 0
0.5 -0.25 0 0
0.34000897 0.23999999 0.16503906 0
-320 0.296875 -704 0
-128 0.25 -512 0
0.38085938 0.23999996 188 0
-0.11395264 0.70568848 -0.060236171 0.02430924
0 0 0.17 0
0.0099999998 0 0.17 0
0.02 0 0.17 0
0.029999999 0 0.17 0
0.039999999 0 0.17 0
0.050000001 0 0.17 0
0.059999999 0 0.17 0
0.07 0 0.17 0
0.079999998 0 0.17 0
0.090000004 0 0.17 0
0.1 0 0.17 0
0.11 0 0.17 0
0.12 0 0.17 0
0.13 0 0.17 0
0.14 0 0.17 0
0.15000001 0 0.17 0
0.16 0 0.17 0
0.17 0 0.17 0
0.18000001 0 0.17 0
0.19 0 0.17 0
0.2 0 0.17 0
0.20999999 0 0.17 0
0.22 0 0.17 0
0.23 0 0.17 0
0.23999999 0 0.17 0
0.25 0 0.17 0
0.25999999 0 0.17 0
0.27000001 0 0.17 0
0.28 0 0.17 0
0.28999999 0 0.17 0
0.30000001 0 0.17 0
0.31 0 0.17 0
0.31999999 0 0.17 0
0.33000001 0 0.17 0
0.34 0 0.17 0
0.34999999 0 0.17 0
0.36000001 0 0.17 0
0.37 0 0.17 0
0.38 0 0.17 0
0.38999999 0 0.17 0
0 0.0099999998 0.17 0
0.38999999 0.0099999998 0.17 0
0 0.02 0.17 0
0.38999999 0.02 0.17 0
0 0.029999999 0.17 0
0.38999999 0.029999999 0.17 0
0 0.039999999 0.17 0
0.38999999 0.039999999 0.17 0
0 0.050000001 0.17 0
0.38999999 0.050000001 0.17 0
0 0.059999999 0.17 0
0.38999999 0.059999999 0.17 0
0 0.07 0.17 0
0.38999999 0.07 0.17 0
0 0.079999998 0.17 0
0.38999999 0.079999998 0.17 0
0 0.090000004 0.17 0
0.38999999 0.090000004 0.17 0
0 0.1 0.17 0
0.38999999 0.1 0.17 0
0 0.11 0.17 0
0.38999999 0.11 0.17 0
0 0.12 0.17 0
0.38999999 0.12 0.17 0
0 0.13 0.17 0
0.38999999 0.13 0.17 0
0 0.14 0.17 0
0.38999999 0.14 0.17 0
0 0.15000001 0.17 0
0.38999999 0.15000001 0.17 0
0 0.16 0.17 0
0.38999999 0.16 0.17 0
0 0.17 0.17 0
0.38999999 0.17 0.17 0
0 0.18000001 0.17 0
0.38999999 0.18000001 0.17 0
0 0.19 0.17 0
0.38999999 0.19 0.17 0
0 0.2 0.17 0
0.38999999 0.2 0.17 0
0 0.20999999 0.17 0
0.38999999 0.20999999 0.17 0
0 0.22 0.17 0
0.38999999 0.22 0.17 0
0 0.23 0.17 0
-303.76587 0 0.88202238 7.4505806e-09
0 0.23999999 0.17 0
0.0099999998 0.23999999 0.17 0
0.02 0.23999999 0.17 0
0.029999999 0.23999999 0.17 0
0.039999999 0.23999999 0.17 0
0.050000001 0.23999999 0.17 0
0.059999999 0.23999999 0.17 0
0.07 0.23999999 0.17 0
0.079999998 0.23999999 0.17 0
0.090000004 0.23999999 0.17 0
0.1 0.23999999 0.17 0
0.12304688 0.203125 0.17000002 0
0 0 64 0
0.13 0.23999999 0.17 0
0.14 0.23999999 0.17 0
0.15000001 0.23999999 0.17 0
0.16 0.23999999 0.17 0
0.17 0.23999999 0.17 0
0.18000001 0.23999999 0.17 0
0.19 0.23999999 0.17 0
0.2 0.23999999 0.17 0
0.20999999 0.23999999 0.17 0
0.22 0.23999999 0.17 0
0.23 0.23999999 0.17 0
0.23999999 0.23999999 0.17 0
0.25 0.23999999 0.17 0
0.25999999 0.23999999 0.17 0
0.27000001 0.23999999 0.17 0
0.28 0.23999999 0.17 0
0.28999999 0.23999999 0.17 0
0.30000001 0.23999999 0.17 0
0.31 0.23999999 0.17 0
0.31999999 0.23999999 0.17 0
0.33000001 0.23999999 0.17 0
0.34 0.23999999 0.17 0
0.34999999 0.23999999 0.17 0
0.36000001 0.23999999 0.17 0
0.37 0.23999999 0.17 0
-384 -448 0.046875 7.4505806e-09
0 0 0.18000001 0
0.0099999998 0 0.18000001 0
0.02 0 0.18000001 0
0.029999999 0 0.18000001 0
0.039999999 0 0.18000001 0
0.050000001 0 0.18000001 0
0.059999999 0 0.18000001 0
0.07 0 0.18000001 0
0.079999998 0 0.18000001 0
0.090000004 0 0.18000001 0
0.1 0 0.18000001 0
0.11 0 0.18000001 0
0.12 0 0.18000001 0
0.13 0 0.18000001 0
0.14 0 0.18000001 0
0.15000001 0 0.18000001 0
0.16 0 0.18000001 0
0.17 0 0.18000001 0
0.18000001 0 0.18000001 0
0.19 0 0.18000001 0
0.2 0 0.18000001 0
0.20999999 0 0.18000001 0
0.22 0 0.18000001 0
0.23 0 0.18000001 0
0.23999999 0 0.18000001 0
0.25 0 0.18000001 0
0.25999999 0 0.18000001 0
0.27000001 0 0.18000001 0
0.28 0 0.18000001 0
0.28999999 0 0.18000001 0
0.30000001 0 0.18000001 0
0.31 0 0.18000001 0
0.31999999 0 0.18000001 0
0.33000001 0 0.18000001 0
0.34 0 0.18000001 0
0.34999999 0 0.18000001 0
0.36000001 0 0.18000001 0
0.37 0 0.18000001 0
0.38 0 0.18000001 0
0.38999999 0 0.18000001 0
0 0.0099999998 0.18000001 0
0.38999999 0.0099999998 0.18000001 0
0 0.02 0.18000001 0
0.38999999 0.02 0.18000001 0
0 0.029999999 0.18000001 0
0.38999999 0.029999999 0.18000001 0
0 0.039999999 0.18000001 0
0.38999999 0.039999999 0.18000001 0
0 0.050000001 0.18000001 0
0 0.059999999 0.18000001 0
0 0.07 0.18000001 0
0 0.079999998 0.18000001 0
0.38999999 0.079999998 0.18000001 7.4505806e-09
0 0.090000004 0.18000001 0
0.39000013 0.07321167 0.1920166 0
0 0.1 0.18000001 0
0.38999999 0.10236564 0.16999999 0
0 0.11 0.18000001 0
0 0.12 0.18000001 0
0.38994849 4096 -4096 7.4505806e-09
0 0.13 0.18000001 0
0 0.14 0.18000001 0
0.38999999 0.14 0.18000001 0
0 0.15000001 0.18000001 0
0 0.16 0.18000001 0
0 0.17 0.18000001 0
0.38999999 0.17 0.18000001 0
0 0.18000001 0.18000001 0
0 0.19 0.18000001 0
0.38929749 1024 0 7.4505806e-09
0 0.2 0.18000001 0
0 0.20999999 0.18000001 0
0.38999677 0.20593262 0.17041016 7.4505806e-09
0 0.22 0.18000001 0
0.38999999 0.22 0.18000001 0
0 0.23 0.18000001 0
0 0.23999999 0.18000001 0
0.0099999998 0.23999999 0.18000001 0
0.02 0.23999999 0.18000001 0
0.029999999 0.23999999 0.18000001 0
0.039999999 0.23999999 0.18000001 0
0.055010527 0.24000041 0.18490426 0
0.055010527 0.24000041 0.18490426 0
-2048 -0.10989162 -12288 0
0.085889727 0.23999967 0.18502572 0
0.085889727 0.23999967 0.18502572 0
0 0 -2048 0
0.11 0.23999999 0.18000001 0
0.12 0.23999999 0.18000001 0
0.13 0.23999999 0.18000001 0
0.14 0.23999999 0.18000001 0
-582.65625 0.056533813 154.87976 0
-1471.9062 -0.22900391 608.4375 0
0.17 0.23999999 0.18000001 0
0.18000001 0.23999999 0.18000001 0
0.19 0.23999999 0.18000001 0
2048 0 -2048 0
1109.2617 0.43896848 -0.25337136 0
0.22 0.23999999 0.18000001 0
-1538.2695 0.20580673 381.80472 0
-40.121094 0.39297152 220.35309 0
0.25 0.23999999 0.18000001 0
0.25999999 0.23999999 0.18000001 0
0.27796555 0.24000001 0.17000011 0
0.30000001 0.23999999 0.18000001 0
0.31 0.23999999 0.18000001 0
0.31999999 0.23999999 0.18000001 0
0.33000001 0.23999999 0.18000001 0
0.34 0.23999999 0.18000001 0
0.34999999 0.23999999 0.18000001 0
0 -0.054835681 1024 0
0.33824158 -0.025497437 0.016967773 0.024304524
0 0 0.19 0
0.0099999998 0 0.19 0
0.02 0 0.19 0
0.029999999 0 0.19 0
0.039999999 0 0.19 0
0.050000001 0 0.19 0
0.059999999 0 0.19 0
0.07 0 0.19 0
0.079999998 0 0.19 0
0.090000004 0 0.19 0
0.1 0 0.19 0
0.11 0 0.19 0
0.12 0 0.19 0
0.13 0 0.19 0
0.14 0 0.19 0
0.15000001 0 0.19 0
0.16 0 0.19 0
0.17 0 0.19 0
0.18000001 0 0.19 0
0.19 0 0.19 0
0.2 0 0.19 0
0.20999999 0 0.19 0
0.22 0 0.19 0
0.23 0 0.19 0
0.23999999 0 0.19 0
0.25 0 0.19 0
0.25999999 0 0.19 0
0.27000001 0 0.19 0
0.28 0 0.19 0
0.28999999 0 0.19 0
0.30000001 0 0.19 0
0.31 0 0.19 0
0.31999999 0 0.19 0
0.33000001 0 0.19 0
0.34 0 0.19 0
0.34999999 0 0.19 0
0.36000001 0 0.19 0
0.37 0 0.19 0
0.38 0 0.19 0
0.38999999 0 0.19 0
0 0.0099999998 0.19 0
0.38999999 0.0099999998 0.19 0
0 0.02 0.19 0
0.38999999 0.02 0.19 0
0 0.029999999 0.19 0
0.38999999 0.029999999 0.19 0
0 0.039999999 0.19 0
0.38999999 0.039999999 0.19 0
0 0.050000001 0.19 0
0 0.059999999 0.19 0
0 0.07 0.19 0
0 768 -2048 7.4505806e-09
0 0.079999998 0.19 0
0 0.090000004 0.19 0
0.5 512 1024 0
0 0.1 0.19 0
1 0 1024 0
0 0.11 0.19 0
0.38999256 0 0 0
0 0.12 0.19 0
0 0.13 0.19 0
0.3900001 0.13995773 0.18505859 0
0 0.14 0.19 0
0.38999999 0.14 0.19 0
0 0.15000001 0.19 0
0 0.16 0.19 0
0 0.17 0.19 0
0.38999999 0.17 0.19 0
0 0.18000001 0.19 0
0.38929749 1024 0 7.4505806e-09
0 0.19 0.19 0
0 0.2 0.19 0
0.39000255 0.19176483 0.19207764 0
0 0.20999999 0.19 0
0 0.22 0.19 0
0.38999999 0.22 0.19 0
0 0.23 0.19 0
0 0.23999999 0.19 0
0.0099999998 0.23999999 0.19 0
0.02 0.23999999 0.19 0
0.029999999 0.23999999 0.19 0
0.039999999 0.23999999 0.19 0
0.055010527 0.24000041 0.18490426 0
0.055010527 0.24000041 0.18490426 0
1024 0.12504974 0 0
0.085889727 0.23999967 0.18502572 0
0.085889727 0.23999967 0.18502572 0
-2048 0.054946315 2048 0
0.11 0.23999999 0.19 0
0.12 0.23999999 0.19 0
0.13 0.23999999 0.19 0
0.14 0.23999999 0.19 0
-1073.14 2.261997 -4891.0713 0
-1467.1875 0.38677216 -1141.125 0
0.17 0.23999999 0.19 0
0.18000001 0.23999999 0.19 0
0.19 0.23999999 0.19 0
-1024 0.14000912 -6144 0
1109.2617 0.43896848 -0.25337136 0
0.22 0.23999999 0.19 0
-1591.8281 0.21842957 -694.54584 0
-768.64062 0.2878027 -272.44852 0
0.25 0.23999999 0.19 0
0.25999999 0.23999999 0.19 0
0.27588832 0.23999798 0.22 0
0.30000001 0.23999999 0.19 0
0.31 0.23999999 0.19 0
0.31999999 0.23999999 0.19 0
0.33000001 0.23999999 0.19 0
0.34 0.23999999 0.19 0
0.34999999 0.23999999 0.19 0
0 0 0.2 0
0.0099999998 0 0.2 0
0.02 0 0.2 0
0.029999999 0 0.2 0
0.039999999 0 0.2 0
0.050000001 0 0.2 0
0.059999999 0 0.2 0
0.07 0 0.2 0
0.079999998 0 0.2 0
0.090000004 0 0.2 0
0.1 0 0.2 0
0.11 0 0.2 0
0.12 0 0.2 0
0.13 0 0.2 0
0.14 0 0.2 0
0.15000001 0 0.2 0
0.16 0 0.2 0
0.17 0 0.2 0
0.18000001 0 0.2 0
0.19 0 0.2 0
0.2 0 0.2 0
0.20999999 0 0.2 0
0.22 0 0.2 0
0.23 0 0.2 0
0.23999999 0 0.2 0
0.25 0 0.2 0
0.25999999 0 0.2 0
0.27000001 0 0.2 0
0.28 0 0.2 0
0.28999999 0 0.2 0
0.30000001 0 0.2 0
0.31 0 0.2 0
0.31999999 0 0.2 0
0.33000001 0 0.2 0
0.34 0 0.2 0
0.34999999 0 0.2 0
0.36000001 0 0.2 0
0.37 0 0.2 0
0.38 0 0.2 0
0.38999999 0 0.2 0
0 0.0099999998 0.2 0
0.38999999 0.0099999998 0.2 0
0 0.02 0.2 0
0.38999999 0.02 0.2 0
0 0.029999999 0.2 0
0.38999999 0.029999999 0.2 0
0 0.039999999 0.2 0
0.38999999 0.039999999 0.2 0
0 0.050000001 0.2 0
0 0.059999999 0.2 0
0 0.07 0.2 0
0.39000368 0.0546875 0.18945312 7.4505806e-09
0 0.079999998 0.2 0
0 -0.09375 0 7.4505806e-09
0 0.090000004 0.2 0
-0.125 -3072 -1024 0
0 0.1 0.2 0
0.38998914 0 512 0
0 0.11 0.2 0
0.39000028 4096 -33554432 0
0 0.12 0.2 0
0.38999999 0.12 0.2 0
0 0.13 0.2 0
0 0.14 0.2 0
0.38999999 0.14 0.2 0
0 0.15000001 0.2 0
0 0.16 0.2 0
0 0.17 0.2 0
0.38999999 0.17 0.2 0
0 0.18000001 0.2 0
0 0.19 0.2 0
0.39000255 0.19176483 0.19207764 0
0 0.2 0.2 0
0 0.20999999 0.2 0
0 0.22 0.2 0
0.38999999 0.22 0.2 0
0 0.23 0.2 0
0 0.23999999 0.2 0
0.0099999998 0.23999999 0.2 0
0.02 0.23999999 0.2 0
0.029999999 0.23999999 0.2 0
0.039999999 0.23999999 0.2 0
0.125 0.125 512 0
0.125 0.125 512 0
-715.32007 0.34927738 -1041.3892 0
0.085634232 0.23999974 0.20648193 0
0.085634232 0.23999974 0.20648193 0
0.085634232 0.23999974 0.20648193 0
-3582 0.27752686 -490.25 0
0.10107422 0.24000071 0.20495605 0
-608 0.21875 -424 0
0.14 0.23999999 0.2 0
0.16625977 0.24000335 0.1895752 0
0.17 0.23999999 0.2 0
-2048 -0.054961413 1024 0
1024 0.070004545 -512 0
1024 -0.125 -176 7.4505806e-09
0.22 0.23999999 0.2 0
0.25402832 0.2400036 0.18920898 0
0 0 2048 0
2048 0.36003801 0 0
0.27514648 0.24000001 0.19970703 0
1024 0.875 -940 0
0.27353668 0.23999956 0.1958313 0
-66.410156 0.23999998 0.20004612 0
0.34039307 0.23999998 0.1998291 0
0.30963135 0.23999986 0.19967651 0
0.34 0.23999999 0.2 0
0.37011719 0.24000011 0.1991272 0
-248 0.17578125 142 0
-248 0.17578125 142 0
0 0 0.20999999 0
0.0099999998 0 0.20999999 0
0.02 0 0.20999999 0
0.029999999 0 0.20999999 0
0.039999999 0 0.20999999 0
0.050000001 0 0.20999999 0
0.059999999 0 0.20999999 0
0.07 0 0.20999999 0
0.079999998 0 0.20999999 0
0.090000004 0 0.20999999 0
0.1 0 0.20999999 0
0.11 0 0.20999999 0
0.12 0 0.20999999 0
0.13 0 0.20999999 0
0.14 0 0.20999999 0
0.15000001 0 0.20999999 0
0.16 0 0.20999999 0
0.17 0 0.20999999 0
0.18000001 0 0.20999999 0
0.19 0 0.20999999 0
0.2 0 0.20999999 0
0.20999999 0 0.20999999 0
0.22 0 0.20999999 0
0.23 0 0.20999999 0
0.23999999 0 0.20999999 0
0.25 0 0.20999999 0
0.25999999 0 0.20999999 0
0.27000001 0 0.20999999 0
0.28 0 0.20999999 0
0.28999999 0 0.20999999 0
0.30000001 0 0.20999999 0
0.31 0 0.20999999 0
0.31999999 0 0.20999999 0
0.33000001 0 0.20999999 0
0.34 0 0.20999999 0
0.34999999 0 0.20999999 0
0.36000001 0 0.20999999 0
0.37 0 0.20999999 0
0.38 0 0.20999999 0
0.38999999 0 0.20999999 0
0 0.0099999998 0.20999999 0
0.38999999 0.0099999998 0.20999999 0
0 0.02 0.20999999 0
0.38999999 0.02 0.20999999 0
0 0.029999999 0.20999999 0
0.38999999 0.029999999 0.20999999 0
0 0.039999999 0.20999999 0
0.38999999 0.039999999 0.20999999 0
0 0.050000001 0.20999999 0
0 0.059999999 0.20999999 0
0 0.07 0.20999999 0
0.38999856 0.076049805 0.21484375 7.4505806e-09
0 0.079999998 0.20999999 0
0.3900007 0.077606201 0.20996094 7.4505806e-09
0 0.090000004 0.20999999 0
0.38999975 0.085453033 0.20684814 0
0 0.1 0.20999999 0
0 -654.74219 0.01171875 0
0 0.11 0.20999999 0
0.38999999 0.11 0.20999999 0
0 0.12 0.20999999 0
0.38999999 0.12 0.20999999 0
0 0.13 0.20999999 0
0 0.14 0.20999999 0
0.38999999 0.14 0.20999999 0
0 0.15000001 0.20999999 0
0 0.16 0.20999999 0
0 0.17 0.20999999 0
0.38999999 0.17 0.20999999 0
0 0.18000001 0.20999999 0
0.38999629 0.16918945 0.20452881 7.4505806e-09
0 0.19 0.20999999 0
0 0.2 0.20999999 0
0 0.20999999 0.20999999 0
0 0.22 0.20999999 0
0.38999999 0.22 0.20999999 0
0 0.23 0.20999999 0
0 0.23999999 0.20999999 0
0.0099999998 0.23999999 0.20999999 0
0.02 0.23999999 0.20999999 0
0.029999999 0.23999999 0.20999999 0
0.039999999 0.23999999 0.20999999 0
0.125 0.125 512 0
0.125 0.125 512 0
1024 -2 0 0
1024 -2 0 0
0.085634232 0.23999974 0.20648193 0
0.085634232 0.23999974 0.20648193 0
-16384 1 1024 0
2048 0.26014102 -2048 0
512 0.5 0 0
0.14 0.23999999 0.20999999 0
0.13989258 0.23999804 0.2043457 0
0.16503906 0.23999816 0.23730469 0
0.17 0.23999999 0.20999999 0
1.25 0 0 0
1.25 0 0 0
1536 0.5 0 7.4505806e-09
0.20792389 0.24000135 0.20819092 7.4505806e-09
0.22 0.23999999 0.20999999 0
1024 -0.125 -176 0
0.125 0.5 0 0
0.5 -0.25 2048 0
0.5 -0.25 2048 0
0.29297638 0.24000007 0.20614624 0
0.30029297 0.24000007 0.2109375 0
-3477504 0.32546997 104 0
6 1.5 -4096 0
0.33007812 0.24000001 0.20996094 0
0.34000742 0.24000135 0.20721436 0
0.35058594 0.24000007 0.20947266 0
0.3570137 0.24000002 0.20626831 0
0.3570137 0.24000002 0.20626831 0
1.3241577 -0.2489624 0.10087371 0.024305671
0 0 0.22 0
0.0099999998 0 0.22 0
0.02 0 0.22 0
0.029999999 0 0.22 0
0.039999999 0 0.22 0
0.050000001 0 0.22 0
0.059999999 0 0.22 0
0.07 0 0.22 0
0.079999998 0 0.22 0
0.090000004 0 0.22 0
0.1 0 0.22 0
0.11 0 0.22 0
0.12 0 0.22 0
0.13 0 0.22 0
0.14 0 0.22 0
0.15000001 0 0.22 0
0.16 0 0.22 0
0.17 0 0.22 0
0.18000001 0 0.22 0
0.19 0 0.22 0
0.2 0 0.22 0
0.20999999 0 0.22 0
0.22 0 0.22 0
0.23 0 0.22 0
0.23999999 0 0.22 0
0.25 0 0.22 0
0.25999999 0 0.22 0
0.27000001 0 0.22 0
0.28 0 0.22 0
0.28999999 0 0.22 0
0.30000001 0 0.22 0
0.31 0 0.22 0
0.31999999 0 0.22 0
0.33000001 0 0.22 0
0.34 0 0.22 0
0.34999999 0 0.22 0
0.36000001 0 0.22 0
0.37 0 0.22 0
0.38 0 0.22 0
0.38999999 0 0.22 0
0 0.0099999998 0.22 0
0.38999999 0.0099999998 0.22 0
0 0.02 0.22 0
0.38999999 0.02 0.22 0
0 0.029999999 0.22 0
0.38999999 0.029999999 0.22 0
0 0.039999999 0.22 0
0.38999999 0.039999999 0.22 0
0 0.050000001 0.22 0
0.38999999 0.050000001 0.22 0
0 0.059999999 0.22 0
0.38999999 0.059999999 0.22 0
0 0.07 0.22 0
0.38999999 0.07 0.22 0
0 0.079999998 0.22 0
0.38999999 0.079999998 0.22 0
0 0.090000004 0.22 0
0.38999999 0.090000004 0.22 7.4505806e-09
0 0.1 0.22 0
0 0.11 0.22 0
-0.03125 787.02344 0.0703125 0
0 0.12 0.22 0
0 0.13 0.22 0
0.38999999 0.13 0.22 7.4505806e-09
0 0.14 0.22 0
0.38999999 0.14 0.22 0
0 0.15000001 0.22 0
0.38999999 0.15000001 0.22 0
0 0.16 0.22 0
0.38999999 0.16 0.22 0
0 0.17 0.22 0
0.38999999 0.17 0.22 0
0 0.18000001 0.22 0
0.38999999 0.18000001 0.22 0
0 0.19 0.22 0
0.38999999 0.19 0.22 0
0 0.2 0.22 0
0.38999999 0.2 0.22 0
0 0.20999999 0.22 0
0.38999999 0.20999999 0.22 0
0 0.22 0.22 0
0.38999999 0.22 0.22 0
0 0.23 0.22 0
0 0.23999999 0.22 0
0.0099999998 0.23999999 0.22 0
0.02 0.23999999 0.22 0
0.029999999 0.23999999 0.22 0
0.039999999 0.23999999 0.22 0
0.050000001 0.23999999 0.22 0
0.059999999 0.23999999 0.22 0
0.07 0.23999999 0.22 0
0.079999998 0.23999999 0.22 0
0.090000004 0.23999999 0.22 0
0.1 0.23999999 0.22 0
0.11 0.23999999 0.22 0
0.12 0.23999999 0.22 0
0.13 0.23999999 0.22 0
0.14 0.23999999 0.22 0
0.15000001 0.23999999 0.22 0
0.16 0.23999999 0.22 0
0.17 0.23999999 0.22 0
0.18000001 0.23999999 0.22 0
0.19 0.23999999 0.22 0
0.2 0.23999999 0.22 0
0.20999999 0.23999999 0.22 0
0.22 0.23999999 0.22 0
0.23 0.23999999 0.22 0
0.23999999 0.23999999 0.22 0
0.25 0.23999999 0.22 0
0.25999999 0.23999999 0.22 0
0.27000001 0.23999999 0.22 0
0.28 0.23999999 0.22 0
0.28999999 0.23999999 0.22 0
0.30000001 0.23999999 0.22 0
0.31 0.23999999 0.22 0
0.31999999 0.23999999 0.22 0
0.33000001 0.23999999 0.22 0
0.34 0.23999999 0.22 0
0.34999999 0.23999999 0.22 0
0.36000001 0.23999999 0.22 0
0.37 0.23999999 0.22 0
0 0 0.23 0
0.0099999998 0 0.23 0
0.02 0 0.23 0
0.029999999 0 0.23 0
0.039999999 0 0.23 0
0.050000001 0 0.23 0
0.059999999 0 0.23 0
0.07 0 0.23 0
0.079999998 0 0.23 0
0.090000004 0 0.23 0
0.1 0 0.23 0
0.11 0 0.23 0
0.12 0 0.23 0
0.13 0 0.23 0
0.14 0 0.23 0
0.15000001 0 0.23 0
0.16 0 0.23 0
0.17 0 0.23 0
0.18000001 0 0.23 0
0.19 0 0.23 0
0.2 0 0.23 0
0.20999999 0 0.23 0
0.22 0 0.23 0
0.23 0 0.23 0
0.23999999 0 0.23 0
0.25 0 0.23 0
0.25999999 0 0.23 0
0.27000001 0 0.23 0
0.28 0 0.23 0
0.28999999 0 0.23 0
0.30000001 0 0.23 0
0.31 0 0.23 0
0.31999999 0 0.23 0
0.33000001 0 0.23 0
0.34 0 0.23 0
0.34999999 0 0.23 0
0.36000001 0 0.23 0
0.37 0 0.23 0
0.38 0 0.23 0
0.38999999 0 0.23 0
0 0.0099999998 0.23 0
0.38999999 0.0099999998 0.23 0
0 0.02 0.23 0
0.38999999 0.02 0.23 0
0 0.029999999 0.23 0
0.38999999 0.029999999 0.23 0
0 0.039999999 0.23 0
0.38999999 0.039999999 0.23 0
0 0.050000001 0.23 0
0 0.059999999 0.23 0
0 0 -1024 0
0 0.07 0.23 0
0 -256 1024 0
0 0.079999998 0.23 0
0 0.090000004 0.23 0
0.38999972 0.085504532 0.23321533 7.4505806e-09
0 0.1 0.23 0
0 0.11 0.23 0
0.38999999 144 0.23535156 0
0 0.12 0.23 0
0 0.13 0.23 0
0.38997537 1024 -512 7.4505806e-09
0 0.14 0.23 0
0.38999999 0.14 0.23 0
0 0.15000001 0.23 0
0 -0.125 -1536 0
0 0.16 0.23 0
0 0.17 0.23 0
0.38999999 0.17 0.23 0
0 0.18000001 0.23 0
0.38999683 0.17016602 0.23492432 7.4505806e-09
0 0.19 0.23 0
0 0.2 0.23 0
0 0.20999999 0.23 0
0.39000273 0.20820999 0.23205566 0
0 0.22 0.23 0
0.38999999 0.22 0.23 0
0 0.23 0.23 0
0 0.23999999 0.23 0
0.0099999998 0.23999999 0.23 0
0.02 0.23999999 0.23 0
0.029999999 0.23999999 0.23 0
0.039999999 0.23999999 0.23 0
0.057128906 0.23998642 0.171875 0
-0.5 0.5 0 0
0.076050758 0.23999967 0.085662842 0
1024 0.12504974 0 0
0.090000004 0.23999999 0.23 0
0.1 0.23999999 0.23 0
0.11 0.23999999 0.23 0
0.12 0.23999999 0.23 0
0.14002234 0.24000001 0.23510742 0
0.14 0.23999999 0.23 0
0 0.22751617 -1536 0
0.17 0.23999999 0.23 0
669.3125 0 -1024 0
-6520 2 -8192 0
0.20507812 0.23999834 0.21972656 0
0.22 0.23999999 0.23 0
0.23 0.23999999 0.23 0
1149 0.25 2048 0
-6438.7485 -2 0 0
0.27038574 0.23999983 0.23925781 7.4505806e-09
0.28979492 0.23999989 0.22998047 7.4505806e-09
1280 0.125 -320 0
0.30998224 0.23999995 0.22509766 0
-0.5 0 2048 0
0 0 0 0
0.34009087 0.24000002 0.22509766 0
-768 -0.0625 1856 0
0.36047363 0.24000004 0.22949219 0
0.5 0 0.15660432 0.024307966
0 0 0.23999999 0
0.0099999998 0 0.23999999 0
0.02 0 0.23999999 0
0.029999999 0 0.23999999 0
0.039999999 0 0.23999999 0
0.050000001 0 0.23999999 0
0.059999999 0 0.23999999 0
0.07 0 0.23999999 0
0.079999998 0 0.23999999 0
0.090000004 0 0.23999999 0
0.1 0 0.23999999 0
0.11 0 0.23999999 0
0.12 0 0.23999999 0
0.13 0 0.23999999 0
0.14 0 0.23999999 0
0.15000001 0 0.23999999 0
0.16 0 0.23999999 0
0.17 0 0.23999999 0
0.18000001 0 0.23999999 0
0.19 0 0.23999999 0
0.2 0 0.23999999 0
0.20999999 0 0.23999999 0
0.22 0 0.23999999 0
0.23 0 0.23999999 0
0.23999999 0 0.23999999 0
0.25 0 0.23999999 0
0.25999999 0 0.23999999 0
0.27000001 0 0.23999999 0
0.28 0 0.23999999 0
0.28999999 0 0.23999999 0
0.30000001 0 0.23999999 0
0.31 0 0.23999999 0
0.31999999 0 0.23999999 0
0.33000001 0 0.23999999 0
0.34 0 0.23999999 0
0.34999999 0 0.23999999 0
0.36000001 0 0.23999999 0
0.37 0 0.23999999 0
0.38 0 0.23999999 0
0.38999999 0 0.23999999 0
0 0.0099999998 0.23999999 0
0.38999999 0.0099999998 0.23999999 0
0 0.02 0.23999999 0
0.38999999 0.02 0.23999999 0
0 0.029999999 0.23999999 0
0.38999999 0.029999999 0.23999999 0
0 0.039999999 0.23999999 0
0.38999999 0.039999999 0.23999999 0
0 0.050000001 0.23999999 0
0.38999999 0.050000001 0.23999999 7.4505806e-09
0 0.059999999 0.23999999 0
0 0.07 0.23999999 0
0 0.079999998 0.23999999 0
0.24341339 5367.5303 0.20036089 7.4505806e-09
0 0.090000004 0.23999999 0
0.625 -4096 -512 7.4505806e-09
0 0.1 0.23999999 0
0 0.11 0.23999999 0
0.5 -187.5 -1024 0
0 0.12 0.23999999 0
0 0.13 0.23999999 0
0.38999999 0.15087891 0.23974609 7.4505806e-09
0 0.14 0.23999999 0
0.38999999 0.14 0.23999999 0
0 0.15000001 0.23999999 0
0 0.16 0.23999999 0
0.38999999 0.16 0.23999999 7.4505806e-09
0 0.17 0.23999999 0
0.38999999 0.17 0.23999999 0
0 0.18000001 0.23999999 0
0 0.19 0.23999999 0
0.39000002 0.19339752 0.25665283 0
0 0.2 0.23999999 0
0.38999996 0.2199707 0.2199707 7.4505806e-09
0 0.20999999 0.23999999 0
0 0.22 0.23999999 0
0.38999999 0.22 0.23999999 0
0 0.23 0.23999999 0
0 0.23999999 0.23999999 0
0.0099999998 0.23999999 0.23999999 0
0.02 0.23999999 0.23999999 0
0.029999999 0.23999999 0.23999999 0
0.039999999 0.23999999 0.23999999 0
0.085889727 0.23999967 0.18502572 0
0.055010527 0.24000041 0.18490426 0
1430.9351 0.1077891 1464.778 0
0 0.375 1536 0
0.090000004 0.23999999 0.23999999 0
0.090087891 0.2400001 0.23950195 0
0.11 0.23999999 0.23999999 0
0.13085938 0.23999998 0.24023438 0
0.14002234 0.24000001 0.23510742 0
0.14 0.23999999 0.23999999 0
1024 1.7735443 1024 0
0.17 0.23999999 0.23999999 0
332.84375 0.5 1024 0
-478.53125 0.25 -4096 0
0.18847656 0.24000359 0.25585938 0
0.24192047 0.24000132 0.24194336 0
0.22 0.23999999 0.23999999 0
0.23999999 0.23999999 0.23999999 0
-1213.75 0.5 -1024 0
442 0.25 2048 0
0.27038574 0.23999983 0.23925781 7.4505806e-09
384 -0.10990383 0 7.4505806e-09
1280 0.125 -320 0
0.30996871 0.23999998 0.24462891 0
-0.5 0 2048 0
0 0 0 0
0.34003544 0.23999999 0.24511719 0
-768 -0.0625 1856 0
-768 0.3973859 512 0
0 0 0.25 0
0.0099999998 0 0.25 0
0.02 0 0.25 0
0.029999999 0 0.25 0
0.039999999 0 0.25 0
0.050000001 0 0.25 0
0.059999999 0 0.25 0
0.07 0 0.25 0
0.079999998 0 0.25 0
0.090000004 0 0.25 0
0.1 0 0.25 0
0.11 0 0.25 0
0.12 0 0.25 0
0.13 0 0.25 0
0.14 0 0.25 0
0.15000001 0 0.25 0
0.16 0 0.25 0
0.17 0 0.25 0
0.18000001 0 0.25 0
0.19 0 0.25 0
0.2 0 0.25 0
0.20999999 0 0.25 0
0.22 0 0.25 0
0.23 0 0.25 0
0.23999999 0 0.25 0
0.25 0 0.25 0
0.25999999 0 0.25 0
0.27000001 0 0.25 0
0.28 0 0.25 0
0.28999999 0 0.25 0
0.30000001 0 0.25 0
0.31 0 0.25 0
0.31999999 0 0.25 0
0.33000001 0 0.25 0
0.34 0 0.25 0
0.34999999 0 0.25 0
0.36000001 0 0.25 0
0.37 0 0.25 0
0.38 0 0.25 0
0.38999999 0 0.25 0
0 0.0099999998 0.25 0
0.38999999 0.0099999998 0.25 0
0 0.02 0.25 0
0.38999999 0.02 0.25 0
0 0.029999999 0.25 0
0.38999999 0.029999999 0.25 0
0 0.039999999 0.25 0
0.38999999 0.039999999 0.25 0
0 0.050000001 0.25 0
0 0.059999999 0.25 0
0.38999999 0.059999999 0.25 7.4505806e-09
0 0.07 0.25 0
0.39000511 -0.0078125 0.22851562 7.4505806e-09
0 0.079999998 0.25 0
0 0.090000004 0.25 0
0.5 -7680 -1024 0
0 0.1 0.25 0
0.5 -7680 -1024 0
0 0.11 0.25 0
0.38999999 0.11 0.25 0
0 0.12 0.25 0
0.38999999 0.12 0.25 0
0 0.13 0.25 0
0 0.14 0.25 0
0.38999999 0.14 0.25 0
0 0.15000001 0.25 0
0 0.16 0.25 0
0 0.17 0.25 0
0.38999999 0.17 0.25 0
0 0.18000001 0.25 0
0.38999379 0.17443848 0.24090576 0
0 0.19 0.25 0
0 0.2 0.25 0
0 0.20999999 0.25 0
0 0 -2048 0
0 0.22 0.25 0
0.38999999 0.22 0.25 0
0 0.23 0.25 0
0 0.23999999 0.25 0
0.0099999998 0.23999999 0.25 0
0.02 0.23999999 0.25 0
0.029999999 0.23999999 0.25 0
0.039999999 0.23999999 0.25 0
0.054973051 0.24000041 0.25501272 0
0.054973032 0.24000043 0.25501269 0
0.07 0.23999999 0.25 0
0.085829839 0.23999962 0.2550315 0
0.085829839 0.23999962 0.2550315 0
-1024 0.23998797 -2048 0
0.11 0.23999999 0.25 0
0.12 0.23999999 0.25 0
0.13 0.23999999 0.25 0
0.14 0.23999999 0.25 0
-1695.2188 0.29699707 1317.25 0
-3090.9375 0.20415115 283.83447 0
0.17 0.23999999 0.25 0
0.18000001 0.23999999 0.25 0
0.19 0.23999999 0.25 0
2048 0 0 0
-955.47925 0.75568384 -0.38837349 0
0.22 0.23999999 0.25 0
-1073.7195 -0.39320782 -4109.231 0
1968.0625 0.33095551 -611.70544 0
0.25 0.23999999 0.25 0
0.25999999 0.23999999 0.25 0
256 -0.054951914 0 0
0.30000001 0.23999999 0.25 0
0.31 0.23999999 0.25 0
0.31999999 0.23999999 0.25 0
0.33000001 0.23999999 0.25 0
0.34 0.23999999 0.25 0
0.34999999 0.23999999 0.25 0
1.8466797 0.30053711 0.60519713 0.024308316
0 0 0.25999999 0
0.0099999998 0 0.25999999 0
0.02 0 0.25999999 0
0.029999999 0 0.25999999 0
0.039999999 0 0.25999999 0
0.050000001 0 0.25999999 0
0.059999999 0 0.25999999 0
0.07 0 0.25999999 0
0.079999998 0 0.25999999 0
0.090000004 0 0.25999999 0
0.1 0 0.25999999 0
0.11 0 0.25999999 0
0.12 0 0.25999999 0
0.13 0 0.25999999 0
0.14 0 0.25999999 0
0.15000001 0 0.25999999 0
0.16 0 0.25999999 0
0.17 0 0.25999999 0
0.18000001 0 0.25999999 0
0.19 0 0.25999999 0
0.2 0 0.25999999 0
0.20999999 0 0.25999999 0
0.22 0 0.25999999 0
0.23 0 0.25999999 0
0.23999999 0 0.25999999 0
0.25 0 0.25999999 0
0.25999999 0 0.25999999 0
0.27000001 0 0.25999999 0
0.28 0 0.25999999 0
0.28999999 0 0.25999999 0
0.30000001 0 0.25999999 0
0.31 0 0.25999999 0
0.31999999 0 0.25999999 0
0.33000001 0 0.25999999 0
0.34 0 0.25999999 0
0.34999999 0 0.25999999 0
0.36000001 0 0.25999999 0
0.37 0 0.25999999 0
0.38 0 0.25999999 0
0.38999999 0 0.25999999 0
0 0.0099999998 0.25999999 0
0.38999999 0.0099999998 0.25999999 0
0 0.02 0.25999999 0
0.38999999 0.02 0.25999999 0
0 0.029999999 0.25999999 0
0.38999999 0.029999999 0.25999999 0
0 0.039999999 0.25999999 0
0.38999999 0.039999999 0.25999999 0
0 0.050000001 0.25999999 0
0.39000109 0.054977439 0.26501662 0
0 0.059999999 0.25999999 0
0 0.07 0.25999999 0
0 0.079999998 0.25999999 0
0.39000127 0.073730446 0.26501286 0
0 0.090000004 0.25999999 0
0.38999993 0.063598633 0.23193359 0
0 0.1 0.25999999 0
0.38999975 -0.75 0.25976562 0
0 0.11 0.25999999 0
0.38999999 -4 0.25976562 0
0 0.12 0.25999999 0
0 0.13 0.25999999 0
0 0.14 0.25999999 0
0.38999999 0.14 0.25999999 0
0 0.15000001 0.25999999 0
0 0.16 0.25999999 0
0 0.17 0.25999999 0
0.38999999 0.17 0.25999999 0
0 0.18000001 0.25999999 0
0 0.19 0.25999999 0
0 0.2 0.25999999 0
0 0.20999999 0.25999999 0
0.25 0 0 0
0 0.22 0.25999999 0
0.38999999 0.22 0.25999999 0
0 0.23 0.25999999 0
0 0.23999999 0.25999999 0
0.0099999998 0.23999999 0.25999999 0
0.02 0.23999999 0.25999999 0
0.029999999 0.23999999 0.25999999 0
0.039999999 0.23999999 0.25999999 0
0.054973032 0.24000043 0.25501269 0
0.054973051 0.24000041 0.25501272 0
0.07 0.23999999 0.25999999 0
0.085829839 0.23999962 0.2550315 0
0.085829839 0.23999962 0.2550315 0
-1024 0.054948106 0 0
0.11 0.23999999 0.25999999 0
0.12 0.23999999 0.25999999 0
0.13 0.23999999 0.25999999 0
0.14 0.23999999 0.25999999 0
-57473 1.848877 -2881.332 0
66.117188 0.15841675 -460.91089 0
0.17 0.23999999 0.25999999 0
0.18000001 0.23999999 0.25999999 0
0.19 0.23999999 0.25999999 0
0.2 0.23999999 0.25999999 0
-955.47925 0.75568384 -0.38837349 0
0.22 0.23999999 0.25999999 0
2479.5 0.17364502 -1242 0
-1157.75 0.63421631 1915.3254 0
0.25 0.23999999 0.25999999 0
0.25999999 0.23999999 0.25999999 0
0.26708984 0.23999944 0.27392578 0
0.30000001 0.23999999 0.25999999 0
0.31 0.23999999 0.25999999 0
0.31999999 0.23999999 0.25999999 0
0.33000001 0.23999999 0.25999999 0
0.34 0.23999999 0.25999999 0
0.34999999 0.23999999 0.25999999 0
0 0.23997428 0 0
0 0 0.27000001 0
0.0099999998 0 0.27000001 0
0.02 0 0.27000001 0
0.029999999 0 0.27000001 0
0.039999999 0 0.27000001 0
0.050000001 0 0.27000001 0
0.059999999 0 0.27000001 0
0.07 0 0.27000001 0
0.079999998 0 0.27000001 0
0.090000004 0 0.27000001 0
0.1 0 0.27000001 0
0.11 0 0.27000001 0
0.12 0 0.27000001 0
0.13 0 0.27000001 0
0.14 0 0.27000001 0
0.15000001 0 0.27000001 0
0.16 0 0.27000001 0
0.17 0 0.27000001 0
0.18000001 0 0.27000001 0
0.19 0 0.27000001 0
0.2 0 0.27000001 0
0.20999999 0 0.27000001 0
0.22 0 0.27000001 0
0.23 0 0.27000001 0
0.23999999 0 0.27000001 0
0.25 0 0.27000001 0
0.25999999 0 0.27000001 0
0.27000001 0 0.27000001 0
0.28 0 0.27000001 0
0.28999999 0 0.27000001 0
0.30000001 0 0.27000001 0
0.31 0 0.27000001 0
0.31999999 0 0.27000001 0
0.33000001 0 0.27000001 0
0.34 0 0.27000001 0
0.34999999 0 0.27000001 0
0.36000001 0 0.27000001 0
0.37 0 0.27000001 0
0.38 0 0.27000001 0
0.38999999 0 0.27000001 0
0 0.0099999998 0.27000001 0
0.38999999 0.0099999998 0.27000001 0
0 0.02 0.27000001 0
0.38999999 0.02 0.27000001 0
0 0.029999999 0.27000001 0
0.38999999 0.029999999 0.27000001 0
0 0.039999999 0.27000001 0
0.38999999 0.039999999 0.27000001 0
0 0.050000001 0.27000001 0
0.5 -0.25 0 7.4505806e-09
0 0.059999999 0.27000001 0
0.38999853 0.054955661 0.27062988 7.4505806e-09
0 0.07 0.27000001 0
0.38999832 0.072059631 0.27185059 7.4505806e-09
0 0.079999998 0.27000001 0
0.38999924 0.072479248 0.26977539 7.4505806e-09
0 0.090000004 0.27000001 0
0.38999978 -12 0.28076172 0
0 0.1 0.27000001 0
0.38999987 -12 0.27929688 0
0 0.11 0.27000001 0
0.38999999 0.11 0.27000001 0
0 0.12 0.27000001 0
0.38999999 0.12 0.27000001 0
0 0.13 0.27000001 0
0 0.14 0.27000001 0
0.67004704 0.15288082 0.33496094 0
0 0.15000001 0.27000001 0
0 0.16 0.27000001 0
0.5 -1 1024 0
0 0.17 0.27000001 0
0.38999999 0.17 0.27000001 0
0 0.18000001 0.27000001 0
0.38999975 0.21999991 0.31054688 0
0 0.19 0.27000001 0
0.38999975 0.21999991 0.31054688 0
0 0.2 0.27000001 0
0 0.20999999 0.27000001 0
1.8466797 0.30053711 0.60519713 0
0 0.22 0.27000001 0
0 0.23 0.27000001 0
0 0.23999999 0.27000001 0
-0.0050026551 0.95210105 -1311.416 0
-0.010005295 0.079936326 -16888.18 0
0.029999999 0.23999999 0.27000001 7.4505806e-09
0.039999999 0.23999999 0.27000001 0
0.054964542 0.24000001 0.2677002 0
-0.5 0.5 1024 0
0.073608398 0.23999998 0.26843262 0
0.073608398 0.23999998 0.26843262 0
0.090000004 0.23999999 0.27000001 0
12879.238 0 -4096 0
0.131073 0.23999995 0.27075958 7.4505806e-09
-256 0.37013552 0 0
0.16015625 0.23999971 0.27026367 0
0.17 0.23999999 0.27000001 0
0.22 0.23999999 0.27000001 0
0.24035645 0.24000004 0.2701416 7.4505806e-09
0.24035645 0.24000004 0.2701416 7.4505806e-09
0.26708984 0.23999944 0.27392578 0
0.29949951 0.23999991 0.26998901 7.4505806e-09
0.31991577 0.24000001 0.26982117 0
-3072 -0.14026569 0 7.4505806e-09
0.41699219 0.24000764 0.29101562 0
0 0 0.28 0
0.0099999998 0 0.28 0
0.02 0 0.28 0
0.029999999 0 0.28 0
0.039999999 0 0.28 0
0.050000001 0 0.28 0
0.059999999 0 0.28 0
0.07 0 0.28 0
0.079999998 0 0.28 0
0.090000004 0 0.28 0
0.1 0 0.28 0
0.11 0 0.28 0
0.12 0 0.28 0
0.13 0 0.28 0
0.14 0 0.28 0
0.15000001 0 0.28 0
0.16 0 0.28 0
0.17 0 0.28 0
0.18000001 0 0.28 0
0.19 0 0.28 0
0.2 0 0.28 0
0.20999999 0 0.28 0
0.22 0 0.28 0
0.23 0 0.28 0
0.23999999 0 0.28 0
0.25 0 0.28 0
0.25999999 0 0.28 0
0.27000001 0 0.28 0
0.28 0 0.28 0
0.28999999 0 0.28 0
0.30000001 0 0.28 0
0.31 0 0.28 0
0.31999999 0 0.28 0
0.33000001 0 0.28 0
0.34 0 0.28 0
0.34999999 0 0.28 0
0.36000001 0 0.28 0
0.37 0 0.28 0
0.38 0 0.28 0
0.38999999 0 0.28 0
0 0.0099999998 0.28 0
0.38999999 0.0099999998 0.28 0
0 0.02 0.28 0
0.38999999 0.02 0.28 0
0 0.029999999 0.28 0
0.38999999 0.029999999 0.28 0
0 0.039999999 0.28 0
0.38999999 0.039999999 0.28 0
0 0.050000001 0.28 0
0 0.059999999 0.28 0
0 0.07 0.28 0
0 0.079999998 0.28 0
0.39000368 0.066458471 0.26504073 7.4505806e-09
0 0.090000004 0.28 0
0 0.1 0.28 0
0.39000005 -1.2615967 0.28076172 0
0 0.11 0.28 0
0.39000002 -1.2614746 0.2800293 0
0 0.12 0.28 0
0 0.13 0.28 0
0 0.14 0.28 0
0.67004704 0.15288082 0.33496094 0
0 0.15000001 0.28 0
0.96875 3200 2116 7.4505806e-09
0 0.16 0.28 0
0 0.17 0.28 0
0.38999999 0.17 0.28 0
0 0.18000001 0.28 0
-0.5 -348200 -2048 0
0 0.19 0.28 0
0.94921875 0.23699951 -597.88739 0
0 0.2 0.28 0
0.59375 -1536 -1280 7.4505806e-09
0 0.20999999 0.28 0
0 0.22 0.28 0
0 0.23 0.28 0
0 0.23999999 0.28 0
-0.0050026551 0.95210105 -1311.416 0
-0.010005295 0.079936326 -16888.18 0
0.029999999 0.23999999 0.28 7.4505806e-09
0.039999999 0.23999999 0.28 0
0.030410767 0.23999755 0.28369141 0
0.073608398 0.23999998 0.26843262 0
0.096313477 0.24000037 0.27648926 0
-768 0 0 0
8192 -0.13969925 -1.3421773e+08 0
12879.238 0 -4096 0
0.13043213 0.23999965 0.2701416 0
128 0.1640625 -64 0
1 -0.5 0 0
0.17 0.23999999 0.28 0
0 -0.25 0 0
0.25 0.13342285 2048 0
0.22 0.23999999 0.28 0
0.26798439 0.24000271 0.26797485 0
0.28999999 0.23999999 0.28 0
0.31951904 0.24000004 0.27008057 0
1024 0 512 0
0.32461548 0.23999965 0.28076172 0
0.32501367 0.24000201 0.28308105 0
0.39200145 0.24199854 0.28000203 0.017774444
0 0 0.28999999 0
0.0099999998 0 0.28999999 0
0.02 0 0.28999999 0
0.029999999 0 0.28999999 0
0.039999999 0 0.28999999 0
0.050000001 0 0.28999999 0
0.059999999 0 0.28999999 0
0.07 0 0.28999999 0
0.079999998 0 0.28999999 0
0.090000004 0 0.28999999 0
0.1 0 0.28999999 0
0.11 0 0.28999999 0
0.12 0 0.28999999 0
0.13 0 0.28999999 0
0.14 0 0.28999999 0
0.15000001 0 0.28999999 0
0.16 0 0.28999999 0
0.17 0 0.28999999 0
0.18000001 0 0.28999999 0
0.19 0 0.28999999 0
0.2 0 0.28999999 0
0.20999999 0 0.28999999 0
0.22 0 0.28999999 0
0.23 0 0.28999999 0
0.23999999 0 0.28999999 0
0.25 0 0.28999999 0
0.25999999 0 0.28999999 0
0.27000001 0 0.28999999 0
0.28 0 0.28999999 0
0.28999999 0 0.28999999 0
0.30000001 0 0.28999999 0
0.31 0 0.28999999 0
0.31999999 0 0.28999999 0
0.33000001 0 0.28999999 0
0.34 0 0.28999999 0
0.34999999 0 0.28999999 0
0.36000001 0 0.28999999 0
0.37 0 0.28999999 0
0.38 0 0.28999999 0
0.38999999 0 0.28999999 0
0 0.0099999998 0.28999999 0
0.38999999 0.0099999998 0.28999999 0
0 0.02 0.28999999 0
0.38999999 0.02 0.28999999 0
0 0.029999999 0.28999999 0
0.38999999 0.029999999 0.28999999 0
0 0.039999999 0.28999999 0
0.38999999 0.039999999 0.28999999 0
0 0.050000001 0.28999999 0
0 0.059999999 0.28999999 0
0 0.07 0.28999999 0
0.38999876 0.076305903 0.29503661 0
0 0.079999998 0.28999999 0
0 0.090000004 0.28999999 0
0.39000368 0.066458471 0.26504073 0
0 0.1 0.28999999 0
0.375 0 -4096 0
0 0.11 0.28999999 0
0 0.12 0.28999999 0
0.3901591 8192 0 7.4505806e-09
0 0.13 0.28999999 0
0.3899999 0 0.30004883 7.4505806e-09
0 0.14 0.28999999 0
0.67004704 0.15288082 0.33496094 0
0 0.15000001 0.28999999 0
0 0.16 0.28999999 0
0.39000094 0.15405273 0.28942871 0
0 0.17 0.28999999 0
0.38999999 0.17 0.28999999 0
0 0.18000001 0.28999999 0
-1.7619019 -2652.9141 1.1236153 0
0 0.19 0.28999999 0
-1.7619019 -2652.9141 1.1236153 0
0 0.2 0.28999999 0
0.25 -256 0 7.4505806e-09
0 0.20999999 0.28999999 0
0.25 -256 0 7.4505806e-09
0 0.22 0.28999999 0
0 0.23 0.28999999 0
0 0.23999999 0.28999999 0
-0.0050026551 0.95210105 -1311.416 0
-0.010005295 0.079936326 -16888.18 0
0.029999999 0.23999999 0.28999999 7.4505806e-09
0.039999999 0.23999999 0.28999999 0
0.054990411 0.24000005 0.29272461 0
0.054990411 0.24000005 0.29272461 0
0.075735092 0.24000007 0.29272461 0
0.075714111 0.24000004 0.29278564 0
0.089355469 0.23999959 0.28979492 0
128 -1 2048 0
0.11010742 0.23999995 0.28991699 0
0 0.28890505 -512 0
0.1496582 0.24000019 0.29003906 0
0.1496582 0.24000019 0.29003906 0
0.17 0.23999999 0.28999999 0
256 -0.25 512 0
0.20619965 0.24000004 0.29290771 0
0.22 0.23999999 0.28999999 0
0.22949219 0.24000007 0.28979492 7.4505806e-09
0.2310791 0.23999923 0.29229736 7.4505806e-09
1024 0.030151367 -512 0
0.28999999 0.23999999 0.28999999 0
0.31003731 0.24000002 0.29504395 0
0.32501367 0.24000201 0.28308105 0
0.36116028 0.23999882 0.29269409 0
0 0 0.30000001 0
0.0099999998 0 0.30000001 0
0.02 0 0.30000001 0
0.029999999 0 0.30000001 0
0.039999999 0 0.30000001 0
0.050000001 0 0.30000001 0
0.059999999 0 0.30000001 0
0.07 0 0.30000001 0
0.079999998 0 0.30000001 0
0.090000004 0 0.30000001 0
0.1 0 0.30000001 0
0.11 0 0.30000001 0
0.12 0 0.30000001 0
0.13 0 0.30000001 0
0.14 0 0.30000001 0
0.15000001 0 0.30000001 0
0.16 0 0.30000001 0
0.17 0 0.30000001 0
0.18000001 0 0.30000001 0
0.19 0 0.30000001 0
0.2 0 0.30000001 0
0.20999999 0 0.30000001 0
0.22 0 0.30000001 0
0.23 0 0.30000001 0
0.23999999 0 0.30000001 0
0.25 0 0.30000001 0
0.25999999 0 0.30000001 0
0.27000001 0 0.30000001 0
0.28 0 0.30000001 0
0.28999999 0 0.30000001 0
0.30000001 0 0.30000001 0
0.31 0 0.30000001 0
0.31999999 0 0.30000001 0
0.33000001 0 0.30000001 0
0.34 0 0.30000001 0
0.34999999 0 0.30000001 0
0.36000001 0 0.30000001 0
0.37 0 0.30000001 0
0.38 0 0.30000001 0
0.38999999 0 0.30000001 0
0 0.0099999998 0.30000001 0
0.38999999 0.0099999998 0.30000001 0
0 0.02 0.30000001 0
0.38999999 0.02 0.30000001 0
0 0.029999999 0.30000001 0
0.38999999 0.029999999 0.30000001 0
0 0.039999999 0.30000001 0
0.38999999 0.039999999 0.30000001 0
0 0.050000001 0.30000001 0
0 0.059999999 0.30000001 0
0 0.07 0.30000001 0
0 0.079999998 0.30000001 0
0.39000145 0.078033447 0.30126953 7.4505806e-09
0 0.090000004 0.30000001 0
0.39000052 0.08531189 0.30462646 0
0 0.1 0.30000001 0
0.39000052 0.08531189 0.30462646 0
0 0.11 0.30000001 0
0.3900001 -6 0.30078125 0
0 0.12 0.30000001 0
0.3900001 0.12988281 0.30078125 0
0 0.13 0.30000001 0
0 0.14 0.30000001 0
0.38999999 0.14 0.30000001 7.4505806e-09
0 0.15000001 0.30000001 0
0.39000061 0.15496826 0.2989502 0
0 0.16 0.30000001 0
0 0.17 0.30000001 0
0.38999999 0.17 0.30000001 0
0 0.18000001 0.30000001 0
0.38999653 0.15234375 0.328125 0
0 0.19 0.30000001 0
0.39004302 -1024 1536 0
0 0.2 0.30000001 0
0 0.20999999 0.30000001 0
0 0.22 0.30000001 0
0.38999999 0.22 0.30000001 7.4505806e-09
0 0.23 0.30000001 0
0 0.23999999 0.30000001 0
0.0099999998 0.23999999 0.30000001 0
0.02 0.23999999 0.30000001 7.4505806e-09
0.029999999 0.23999999 0.30000001 7.4505806e-09
0.055664062 0.24000049 0.30078125 0
0.054990411 0.24000005 0.29272461 0
2048 0.875 1024 0
0.085372925 0.23999977 0.28686523 0
0.090000004 0.23999999 0.30000001 0
128 -1 2048 0
0 0.28890505 -512 0
0 0.40890503 -1024 0
0 0.40890503 -1024 0
-0.099995971 1.0835569 -1.0859375 7.4505806e-09
-768 0.1875 512 0
-768 0.1875 512 0
0.17 0.23999999 0.30000001 0
0.18000001 0.23999999 0.30000001 0
0.19 0.23999999 0.30000001 0
0.19586182 0.23999962 0.2734375 0
0.2097168 0.24000013 0.30029297 0
0.22 0.23999999 0.30000001 0
-384 0.25 -512 0
-384 0.25 -512 0
0.25 0.23999999 0.30000001 0
0.25999999 0.23999999 0.30000001 0
0.29003906 0.24000013 0.30029297 0
0.30000001 0.23999999 0.30000001 0
-4194304 0 0 0
0.31999999 0.23999999 0.30000001 0
0.33000001 0.23999999 0.30000001 0
0.34 0.23999999 0.30000001 0
0.34999999 0.23999999 0.30000001 0
0.36035156 0.24000001 0.30224609 0
0.35806084 0.23999727 0.29202271 0
0 0 0.31 0
0.0099999998 0 0.31 0
0.02 0 0.31 0
0.029999999 0 0.31 0
0.039999999 0 0.31 0
0.050000001 0 0.31 0
0.059999999 0 0.31 0
0.07 0 0.31 0
0.079999998 0 0.31 0
0.090000004 0 0.31 0
0.1 0 0.31 0
0.11 0 0.31 0
0.12 0 0.31 0
0.13 0 0.31 0
0.14 0 0.31 0
0.15000001 0 0.31 0
0.16 0 0.31 0
0.17 0 0.31 0
0.18000001 0 0.31 0
0.19 0 0.31 0
0.2 0 0.31 0
0.20999999 0 0.31 0
0.22 0 0.31 0
0.23 0 0.31 0
0.23999999 0 0.31 0
0.25 0 0.31 0
0.25999999 0 0.31 0
0.27000001 0 0.31 0
0.28 0 0.31 0
0.28999999 0 0.31 0
0.30000001 0 0.31 0
0.31 0 0.31 0
0.31999999 0 0.31 0
0.33000001 0 0.31 0
0.34 0 0.31 0
0.34999999 0 0.31 0
0.36000001 0 0.31 0
0.37 0 0.31 0
0.38 0 0.31 0
0.38999999 0 0.31 0
0 0.0099999998 0.31 0
0.38999999 0.0099999998 0.31 0
0 0.02 0.31 0
0.38999999 0.02 0.31 0
0 0.029999999 0.31 0
0.38999999 0.029999999 0.31 0
0 0.039999999 0.31 0
0.38999999 0.039999999 0.31 0
0 0.050000001 0.31 0
0.38999879 0.026228543 0.30998906 0
0 0.059999999 0.31 0
0.39000088 0.075284086 0.30997282 0
0 0.07 0.31 0
0.39000171 0.054321289 0.30957031 1.4901161e-08
0 0.079999998 0.31 0
0 0.090000004 0.31 0
0.38999999 0.077643394 0.30996704 0
0 0.1 0.31 0
0.38999999 0.1 0.31 0
0 0.11 0.31 0
0.38999999 0.11 0.31 0
0 0.12 0.31 0
0.68989086 2176.9531 -3.6907349 0
0 0.13 0.31 0
0 0.14 0.31 0
0.38999999 0.14 0.31 7.4505806e-09
0 0.15000001 0.31 0
0.43725586 1 -8192 0
0 0.16 0.31 0
0.38999963 0.17314148 0.3086853 0
0 0.17 0.31 0
0.38999999 0.17 0.31 0
0 0.18000001 0.31 0
0.39000005 0.17011261 0.3099823 0
0 0.19 0.31 0
0.4375 0 -512 0
0 0.2 0.31 0
0 0.20999999 0.31 0
0.125 0.0625 2048 0
0 0.22 0.31 0
0.38999999 0.22 0.31 7.4505806e-09
0 0.23 0.31 0
0 0.23999999 0.31 0
0.0099999998 0.23999999 0.31 0
0.02 0.23999999 0.31 7.4505806e-09
0.029999999 0.23999999 0.31 7.4505806e-09
0.052527256 0.24000035 0.30993783 0
0.054662734 0.24000046 0.30996442 0
0.079101562 0.24000007 240 0
0.077228516 0.24000068 0.31009668 0
0.084955491 0.24000001 0.31000823 0
0.1 0.23999999 0.31 0
0 0.28890505 -512 0
0 0.28890505 -512 0
0.13 0.23999999 0.31 0
-0.099995971 1.0835569 -1.0859375 7.4505806e-09
-0.125 -0.045771241 4096 0
0.16505155 0.24000001 0.31000429 0
0.17 0.23999999 0.31 0
0.18000001 0.23999999 0.31 0
0.19 0.23999999 0.31 0
0.2 0.23999999 0.31 0
0.20709229 0.24000138 0.31000271 0
0.22 0.23999999 0.31 0
0.22509766 0.23999999 0.30999568 0
0.24489982 0.24000001 0.31001389 0
0.25 0.23999999 0.31 0
0.25999999 0.23999999 0.31 0
0.29003906 0.24000013 0.30029297 0
0.29389384 0.2399998 0.31005955 0
0.30000001 0.23999999 0.31 0
-4194304 0 -512 0
0.31999999 0.23999999 0.31 0
