# .PCD v0.7 - Point Cloud Data file format
VERSION 0.7
FIELDS x y z rgb
SIZE 4 4 4 4
TYPE F F F F
COUNT 1 1 1 1
WIDTH 1091
HEIGHT 1
VIEWPOINT 0 0 0 1 0 0 0
POINTS 1091
DATA ascii
nan nan nan 1.0873657e-38
-0.15519145 -0.45487148 1.8730001 1.6870015e-38
-0.14526001 -0.45730004 1.8830001 2.0750128e-38
0.20609048 -0.46507144 1.9150001 1.8626079e-38
0.50229335 -0.46240002 1.904 1.5126664e-38
0.50591999 -0.46240002 1.904 1.1899817e-38
0.50954664 -0.46240002 1.904 9.510701e-39
0.52042663 -0.46240002 1.904 9.4246164e-39
0.52405339 -0.46240002 1.904 1.5034474e-38
0.52768004 -0.46240002 1.904 1.7247135e-38
0.53130668 -0.46240002 1.904 1.4954118e-38
0.53493333 -0.46240002 1.904 1.5507283e-38
nan nan nan 6.8333044e-39
-2.0264001 -0.86164576 3.5760002 5.3531395e-39
nan nan nan 5.5678913e-40
nan nan nan 2.8950826e-42
nan nan nan 4.2448806e-39
-1.8697373 -0.86164576 3.5760002 8.8546495e-39
-1.7781897 -0.84405625 3.5030003 5.2605837e-39
-1.2788525 -0.64069241 2.6590002 3.7803964e-39
-1.2162733 -0.65611333 2.723 3.1419031e-39
-1.18384 -0.6611734 2.7440002 4.6314596e-40
nan nan nan 1.478758e-39
-0.48745716 -0.29155239 1.21 5.0703813e-39
-0.3824743 -0.29058859 1.2060001 1.0138645e-38
-0.38017717 -0.29058859 1.2060001 9.9553302e-39
-0.37788001 -0.29058859 1.2060001 1.0139721e-38
-0.37558287 -0.29058859 1.2060001 1.0140453e-38
-0.37452382 -0.29155239 1.21 1.0878018e-38
-0.10208001 -0.29685333 1.2320001 1.7513942e-38
-0.14448859 -0.45130384 1.8730001 2.1207519e-38
0.2072743 -0.46407428 1.9260001 1.8166177e-38
0.4986667 -0.45877334 1.904 1.4112457e-38
0.50229335 -0.45877334 1.904 8.2220991e-39
0.53493333 -0.45877334 1.904 7.0458618e-39
nan nan nan 6.8311464e-39
-2.0264001 -0.85483432 3.5760002 5.8134044e-39
nan nan nan 2.8056518e-40
nan nan nan 2.5335476e-42
-1.8896058 -0.86391813 3.6140001 4.6119325e-39
-1.8629259 -0.85483432 3.5760002 7.9295304e-39
-1.7781897 -0.83738387 3.5030003 2.7705759e-39
-1.2788525 -0.63562769 2.6590002 5.9930943e-39
-1.2162733 -0.65092671 2.723 3.3273622e-39
-1.18384 -0.65594673 2.7440002 1.1070888e-39
nan nan nan 1.0177799e-39
-0.48745716 -0.28924763 1.21 4.7934441e-39
nan nan nan 1.2631883e-38
-0.28233334 -0.28924763 1.21 1.2447492e-38
-0.28002858 -0.28924763 1.21 1.2815183e-38
-0.27772382 -0.28924763 1.21 1.2815183e-38
-0.27632955 -0.29020384 1.2140001 1.2722987e-38
-0.27221143 -0.28829145 1.2060001 1.2538596e-38
-0.26991433 -0.28829145 1.2060001 1.2721918e-38
-0.26761717 -0.28829145 1.2060001 1.2814114e-38
-0.26532003 -0.28829145 1.2060001 1.3181439e-38
-0.26302287 -0.28829145 1.2060001 1.3458026e-38
-0.26159048 -0.28924763 1.21 1.364277e-38
-0.26014286 -0.29020384 1.2140001 1.364277e-38
-0.2578305 -0.29020384 1.2140001 1.3733902e-38
-0.25551814 -0.29020384 1.2140001 1.3918293e-38
-0.25320575 -0.29020384 1.2140001 1.4102685e-38
-0.25192666 -0.29139906 1.2190001 1.4379271e-38
-0.24960478 -0.29139906 1.2190001 1.4656221e-38
-0.24809431 -0.29235527 1.223 1.4656221e-38
-0.24576476 -0.29235527 1.223 1.4655865e-38
-0.24164383 -0.29020384 1.2140001 1.4840257e-38
-0.23854285 -0.28924763 1.21 1.5025004e-38
-0.23545715 -0.28829145 1.2060001 1.5117199e-38
-0.23316002 -0.28829145 1.2060001 1.511756e-38
-0.23239431 -0.29020384 1.2140001 1.5301951e-38
-0.23008192 -0.29020384 1.2140001 1.5486348e-38
-0.22776954 -0.29020384 1.2140001 1.5762935e-38
-0.22545716 -0.29020384 1.2140001 1.6039519e-38
-0.22314477 -0.29020384 1.2140001 1.6039519e-38
-0.22083241 -0.29020384 1.2140001 1.6131351e-38
-0.21942002 -0.29139906 1.2190001 1.6223547e-38
-0.21781048 -0.29235527 1.223 1.6315743e-38
-0.21548095 -0.29235527 1.223 1.6407938e-38
-0.21384859 -0.29331145 1.2270001 1.6224986e-38
-0.21151145 -0.29331145 1.2270001 1.6409377e-38
-0.20917431 -0.29331145 1.2270001 1.6685611e-38
-0.20683716 -0.29331145 1.2270001 1.650122e-38
-0.20450002 -0.29331145 1.2270001 1.6316829e-38
-0.20084478 -0.29139906 1.2190001 1.6316829e-38
-0.19852288 -0.29139906 1.2190001 1.6683809e-38
-0.19684477 -0.29235527 1.223 1.7052592e-38
-0.19451524 -0.29235527 1.223 1.7145866e-38
-0.19218573 -0.29235527 1.223 1.7053671e-38
-0.1898562 -0.29235527 1.223 1.6961472e-38
-0.18814 -0.29331145 1.2270001 1.7053668e-38
-0.18580288 -0.29331145 1.2270001 1.7329895e-38
-0.18421334 -0.2945067 1.2320001 1.742209e-38
-0.18186669 -0.2945067 1.2320001 1.7422453e-38
-0.10208001 -0.2945067 1.2320001 1.7052939e-38
nan nan nan 2.1020253e-38
0.2072743 -0.46040574 1.9260001 1.8166174e-38
0.50519526 -0.45777619 1.9150001 9.0496962e-39
0.52042663 -0.45514667 1.904 9.7897527e-39
0.54167145 -0.45777619 1.9150001 1.2747555e-38
nan nan nan 7.8442292e-39
-2.0264001 -0.84802294 3.5760002 6.0903514e-39
nan nan nan 6.4933508e-40
nan nan nan 2.8055256e-40
nan nan nan 1.753484e-39
-1.8369097 -0.8392486 3.5390003 6.9164323e-39
-1.7964638 -0.8392486 3.5390003 2.0340842e-39
-1.2692333 -0.62582004 2.6390002 6.0856529e-39
-1.2162733 -0.64574003 2.723 3.3273594e-39
nan nan nan 1.3836757e-39
nan nan nan 9.2307033e-40
-0.48745716 -0.28694287 1.21 4.2402703e-39
-0.29616189 -0.28694287 1.21 1.1799606e-38
-0.29385716 -0.28694287 1.21 1.1983997e-38
-0.29155239 -0.28694287 1.21 1.2168388e-38
-0.28924763 -0.28694287 1.21 1.2444962e-38
-0.28789148 -0.28789148 1.2140001 1.1799593e-38
-0.28557909 -0.28789148 1.2140001 1.1523009e-38
-0.17952001 -0.29216003 1.2320001 1.1061327e-38
-0.17717335 -0.29216003 1.2320001 1.1244642e-38
-0.17482668 -0.29216003 1.2320001 1.1244642e-38
-0.17248002 -0.29216003 1.2320001 1.1889286e-38
-0.17013335 -0.29216003 1.2320001 1.2350264e-38
-0.16778667 -0.29216003 1.2320001 1.2443176e-38
-0.16544002 -0.29216003 1.2320001 1.2535371e-38
-0.16309334 -0.29216003 1.2320001 1.2903438e-38
-0.16074668 -0.29216003 1.2320001 1.3087829e-38
-0.15840001 -0.29216003 1.2320001 1.3087463e-38
-0.15605335 -0.29216003 1.2320001 1.3087463e-38
-0.15308286 -0.29097432 1.2270001 1.2903062e-38
-0.15074573 -0.29097432 1.2270001 1.2995258e-38
-0.14840858 -0.29097432 1.2270001 1.2627211e-38
-0.14607145 -0.29097432 1.2270001 1.244282e-38
-0.14373431 -0.29097432 1.2270001 1.2535369e-38
-0.14197333 -0.29216003 1.2320001 1.2535369e-38
-0.13962668 -0.29216003 1.2320001 1.2719747e-38
-0.13728002 -0.29216003 1.2320001 1.2996334e-38
-0.13493334 -0.29216003 1.2320001 1.2535369e-38
-0.13258669 -0.29216003 1.2320001 1.2166586e-38
-0.13024001 -0.29216003 1.2320001 1.2167672e-38
-0.12789334 -0.29216003 1.2320001 1.2444259e-38
-0.12554666 -0.29216003 1.2320001 1.2811956e-38
-0.12270001 -0.29097432 1.2270001 1.2996347e-38
-0.12036287 -0.29097432 1.2270001 1.2997053e-38
-0.11802572 -0.29097432 1.2270001 1.2904857e-38
-0.11568858 -0.29097432 1.2270001 1.2720466e-38
-0.11335144 -0.29097432 1.2270001 1.2628271e-38
-0.11101429 -0.29097432 1.2270001 1.2445672e-38
-0.10912001 -0.29216003 1.2320001 1.2445672e-38
-0.10677334 -0.29216003 1.2320001 1.2353836e-38
-0.10442667 -0.29216003 1.2320001 1.2077249e-38
-0.10208001 -0.29216003 1.2320001 1.2813042e-38
nan nan nan 1.954801e-38
0.2072743 -0.45673716 1.9260001 1.8073618e-38
0.50519526 -0.45412859 1.9150001 1.098295e-38
0.50884289 -0.45412859 1.9150001 1.0061008e-38
0.52042663 -0.45152 1.904 1.0892876e-38
0.53493333 -0.45152 1.904 1.2752577e-38
0.54167145 -0.45412859 1.9150001 1.7624522e-38
nan nan nan 7.4743677e-39
-2.0195887 -0.84121144 3.5760002 1.2961787e-39
nan nan nan 1.9052755e-40
nan nan nan 3.71679e-40
nan nan nan 2.1762165e-42
nan nan nan 3.1353675e-39
-1.8115516 -0.8240391 3.5030003 7.0075461e-39
nan nan nan 7.4264194e-40
-1.2692333 -0.6207934 2.6390002 5.4417128e-39
-1.2110866 -0.6405533 2.723 3.6925069e-39
nan nan nan 1.202918e-39
nan nan nan 2.8096174e-40
nan nan nan 4.6136911e-40
nan nan nan 3.227238e-39
-0.49206671 -0.28463808 1.21 1.9418886e-39
-0.48584574 -0.28369716 1.2060001 2.9513265e-39
-0.28557909 -0.28557909 1.2140001 1.2256984e-38
nan nan nan 1.9088474e-38
0.2072743 -0.45306858 1.9260001 1.8073621e-38
0.50884289 -0.45048094 1.9150001 1.503194e-38
0.51249051 -0.45048094 1.9150001 1.2176795e-38
0.53130668 -0.44789335 1.904 1.2921878e-38
0.53802383 -0.45048094 1.9150001 1.6425279e-38
nan nan nan 6.8293682e-39
-2.0195887 -0.83440006 3.5760002 2.2174189e-39
nan nan nan 6.4969522e-40
nan nan nan 1.8552211e-40
nan nan nan 1.4772601e-39
nan nan nan 6.0870373e-39
nan nan nan 9.7741409e-39
nan nan nan 2.7912324e-40
nan nan nan 5.626104e-39
-1.2110866 -0.63536668 2.723 3.9697973e-39
-1.2047467 -0.64026672 2.7440002 9.2237108e-40
nan nan nan 1.8693742e-40
nan nan nan 1.8258919e-42
nan nan nan 3.6989375e-40
nan nan nan 5.5428501e-40
nan nan nan 2.7807787e-40
nan nan nan 1.8588224e-40
-0.48354861 -0.28140002 1.2060001 8.5734523e-39
-0.28557909 -0.28326669 1.2140001 1.2073314e-38
-0.13258669 -0.28746668 1.2320001 1.2997786e-38
-0.13024001 -0.28746668 1.2320001 1.2630082e-38
-0.12737429 -0.2863 1.2270001 1.2722278e-38
-0.12503716 -0.2863 1.2270001 1.2629385e-38
-0.12270001 -0.2863 1.2270001 1.272158e-38
-0.12036287 -0.2863 1.2270001 1.2721918e-38
-0.11802572 -0.2863 1.2270001 1.2629722e-38
-0.11568858 -0.2863 1.2270001 1.24464e-38
-0.11335144 -0.2863 1.2270001 1.2722987e-38
-0.11101429 -0.2863 1.2270001 1.2446044e-38
-0.10867715 -0.2863 1.2270001 1.2077262e-38
-0.10634001 -0.2863 1.2270001 1.2077618e-38
-0.10208001 -0.28746668 1.2320001 1.3547032e-38
-0.099733338 -0.28746668 1.2320001 1.7234857e-38
0.2072743 -0.44940001 1.9260001 1.7888511e-38
0.51249051 -0.44683334 1.9150001 1.6599982e-38
0.51317334 -0.44426668 1.904 1.4571688e-38
0.52768004 -0.44426668 1.904 2.0291697e-38
0.53130668 -0.44426668 1.904 2.2683365e-38
nan nan nan 5.6326243e-39
-2.0195887 -0.82758862 3.5760002 2.3110495e-39
nan nan nan 3.2580189e-42
nan nan nan 6.2692776e-39
nan nan nan 9.1288443e-39
nan nan nan 1.1168349e-42
nan nan nan 5.2562453e-39
-1.2737876 -0.6153686 2.6590002 4.8021139e-39
-1.2687229 -0.6153686 2.6590002 4.4333314e-39
-1.2636582 -0.6153686 2.6590002 4.3353904e-39
-1.2064466 -0.62508863 2.7010002 4.4336873e-39
-1.2013019 -0.62508863 2.7010002 2.4979392e-39
-0.48354861 -0.27910286 1.2060001 8.2046726e-39
-0.28326669 -0.2809543 1.2140001 1.0323775e-38
-0.10208001 -0.28512004 1.2320001 1.5023574e-38
0.2072743 -0.44573146 1.9260001 1.7979625e-38
0.51613808 -0.44318575 1.9150001 1.623156e-38
0.5197857 -0.44318575 1.9150001 1.4572745e-38
0.52768004 -0.44064 1.904 2.0937774e-38
nan nan nan 5.0801666e-39
-1.9986925 -0.81228483 3.5390003 3.1386521e-39
nan nan nan 1.2972352e-39
nan nan nan 7.3827129e-40
nan nan nan 4.7026778e-39
-1.2585934 -0.61030382 2.6590002 5.5538363e-40
-1.2535286 -0.61030382 2.6590002 8.3302009e-40
-1.2484639 -0.61030382 2.6590002 1.2018026e-39
-1.2433991 -0.61030382 2.6590002 7.4404885e-40
-1.2383344 -0.61030382 2.6590002 9.2844011e-40
-1.2430096 -0.61512381 2.6800001 1.1124838e-39
-1.2379048 -0.61512381 2.6800001 1.2046795e-39
-1.2328 -0.61512381 2.6800001 6.5438957e-40
-1.2373154 -0.61994386 2.7010002 6.5438957e-40
-1.2225906 -0.61512381 2.6800001 6.5581889e-40
-1.2174857 -0.61512381 2.6800001 9.3240578e-40
-1.2123809 -0.61512381 2.6800001 9.3240578e-40
-1.2072762 -0.61512381 2.6800001 1.116797e-39
-1.2021714 -0.61512381 2.6800001 8.3878083e-40
-1.1970667 -0.61512381 2.6800001 9.0201582e-42
-0.48354861 -0.27680573 1.2060001 7.8358999e-39
-0.28326669 -0.27864194 1.2140001 1.07844e-38
-0.10208001 -0.28277335 1.2320001 1.5021777e-38
nan nan nan 1.3456972e-38
nan nan nan 8.488507e-39
nan nan nan 6.6445944e-39
nan nan nan 6.5578456e-39
-0.14356667 -0.47396666 2.0650001 7.1110194e-39
-0.13963334 -0.47396666 2.0650001 7.5709087e-39
-0.13491143 -0.47121242 2.0530002 8.1240825e-39
-0.13017143 -0.46822861 2.0400002 8.5829097e-39
-0.12195238 -0.45216194 1.9700001 8.7673009e-39
-0.1182 -0.45216194 1.9700001 8.8602182e-39
-0.11247239 -0.44435811 1.9360001 9.2290007e-39
-0.10878477 -0.44435811 1.9360001 9.7807368e-39
-0.10694286 -0.45216194 1.9700001 1.0149519e-38
-0.10622858 -0.46547431 2.0280001 1.0518305e-38
-0.10297143 -0.46822861 2.0400002 1.0887087e-38
-0.093548574 -0.44206285 1.9260001 1.1255507e-38
-0.089880005 -0.44206285 1.9260001 1.1624289e-38
-0.086211428 -0.44206285 1.9260001 1.2176387e-38
-0.082542859 -0.44206285 1.9260001 1.2545169e-38
-0.079283811 -0.44435811 1.9360001 1.2729561e-38
-0.075596198 -0.44435811 1.9360001 1.2913952e-38
-0.072317146 -0.44688287 1.9470001 1.3466763e-38
-0.068608582 -0.44688287 1.9470001 1.3927741e-38
-0.064900003 -0.44688287 1.9470001 1.411141e-38
-0.061191436 -0.44688287 1.9470001 1.4203606e-38
-0.057837147 -0.44963714 1.9590001 1.4479117e-38
-0.054105718 -0.44963714 1.9590001 1.4663508e-38
-0.050657146 -0.45216194 1.9700001 1.4847183e-38
-0.046904765 -0.45216194 1.9700001 1.4847183e-38
-0.043393333 -0.45468667 1.9810001 1.521595e-38
-0.039400004 -0.45216194 1.9700001 1.586132e-38
-0.035647623 -0.45216194 1.9700001 1.669001e-38
-0.031717144 -0.44963714 1.9590001 1.6966597e-38
-0.027985716 -0.44963714 1.9590001 1.6690007e-38
-0.025418097 -0.47121242 2.0530002 1.6321224e-38
-0.020397143 -0.44688287 1.9470001 1.6137556e-38
-0.016594287 -0.44435811 1.9360001 1.7336099e-38
-0.0091714291 -0.44206285 1.9260001 2.1206106e-38
0.0018438096 -0.44435811 1.9360001 1.7889977e-38
0.0055314288 -0.44435811 1.9360001 1.8350955e-38
0.5197857 -0.43953809 1.9150001 1.5400381e-38
0.52708095 -0.43953809 1.9150001 1.4848966e-38
nan nan nan 4.8032195e-39
-1.9986925 -0.80554384 3.5390003 3.4166809e-39
nan nan nan 1.8486364e-39
nan nan nan 2.2184755e-39
nan nan nan 2.8236725e-40
nan nan nan 9.2623026e-41
-0.48354861 -0.27450857 1.2060001 8.1099658e-39
-0.28326669 -0.27632955 1.2140001 1.0969147e-38
-0.10208001 -0.28042668 1.2320001 1.419454e-38
nan nan nan 1.2168413e-38
-0.017811429 -0.47299239 2.0780001 8.4870917e-39
-0.013853334 -0.47299239 2.0780001 1.1341566e-38
-0.0019790477 -0.47299239 2.0780001 1.0606888e-38
0.009833334 -0.47003332 2.0650001 1.1712882e-38
0.013133334 -0.44840956 1.9700001 1.2081665e-38
0.016791429 -0.44590572 1.9590001 1.2175302e-38
0.020522859 -0.44590572 1.9590001 1.2451889e-38
0.023969525 -0.44067052 1.9360001 1.2637362e-38
0.027514286 -0.43839431 1.9260001 1.2729558e-38
0.031182857 -0.43839431 1.9260001 1.3189807e-38
0.03503238 -0.44067052 1.9360001 1.3374199e-38
0.038720001 -0.44067052 1.9360001 1.3466041e-38
0.042407621 -0.44067052 1.9360001 1.3650432e-38
0.046095241 -0.44067052 1.9360001 1.4479467e-38
0.049782861 -0.44067052 1.9360001 1.4571663e-38
0.053470481 -0.44067052 1.9360001 1.4941164e-38
0.057482861 -0.4431743 1.9470001 1.5125555e-38
0.060845718 -0.44067052 1.9360001 1.5309941e-38
0.064533338 -0.44067052 1.9360001 1.5586528e-38
0.068220958 -0.44067052 1.9360001 1.5862399e-38
0.071908578 -0.44067052 1.9360001 1.5862399e-38
0.075596198 -0.44067052 1.9360001 1.5862399e-38
0.079283811 -0.44067052 1.9360001 1.604679e-38
0.082971431 -0.44067052 1.9360001 1.6231181e-38
0.086659051 -0.44067052 1.9360001 1.6323377e-38
0.090860009 -0.4431743 1.9470001 1.6508121e-38
0.094568573 -0.4431743 1.9470001 1.6969099e-38
0.098277152 -0.4431743 1.9470001 1.7429717e-38
0.10198572 -0.4431743 1.9470001 1.7337522e-38
0.10634572 -0.44590572 1.9590001 1.7245689e-38
0.11069525 -0.44840956 1.9700001 1.7245689e-38
0.11444762 -0.44840956 1.9700001 1.7429362e-38
0.1182 -0.44840956 1.9700001 1.7521557e-38
0.12127143 -0.44590572 1.9590001 1.7889977e-38
0.12500286 -0.44590572 1.9590001 1.7705585e-38
0.12794574 -0.4431743 1.9470001 1.7429362e-38
0.13165429 -0.4431743 1.9470001 1.7613753e-38
0.13459809 -0.44067052 1.9360001 1.7797781e-38
0.13828573 -0.44067052 1.9360001 1.761339e-38
0.14197333 -0.44067052 1.9360001 1.7613393e-38
0.14566097 -0.44067052 1.9360001 1.7429001e-38
0.14934857 -0.44067052 1.9360001 1.7427925e-38
0.15303619 -0.44067052 1.9360001 1.7151338e-38
0.15672383 -0.44067052 1.9360001 1.6874395e-38
0.16041143 -0.44067052 1.9360001 1.6690004e-38
0.16409907 -0.44067052 1.9360001 1.6505969e-38
0.16778667 -0.44067052 1.9360001 1.6505969e-38
0.17147429 -0.44067052 1.9360001 1.6505619e-38
0.17516191 -0.44067052 1.9360001 1.6229032e-38
0.17884953 -0.44067052 1.9360001 1.5031189e-38
0.18253715 -0.44067052 1.9360001 1.4754602e-38
0.18622477 -0.44067052 1.9360001 1.3646768e-38
0.18991238 -0.44067052 1.9360001 1.6320441e-38
0.19260001 -0.43839431 1.9260001 1.687401e-38
0.19626859 -0.43839431 1.9260001 1.6597423e-38
0.19993715 -0.43839431 1.9260001 1.6780721e-38
0.20360573 -0.43839431 1.9260001 1.6780721e-38
0.2072743 -0.43839431 1.9260001 1.687328e-38
0.21094288 -0.43839431 1.9260001 2.0376714e-38
0.21461144 -0.43839431 1.9260001 2.0011879e-38
0.21828002 -0.43839431 1.9260001 2.0104075e-38
0.22194859 -0.43839431 1.9260001 2.0747992e-38
0.22561716 -0.43839431 1.9260001 2.0747992e-38
0.2304762 -0.44067052 1.9360001 2.065616e-38
0.23416382 -0.44067052 1.9360001 2.0748355e-38
0.23785144 -0.44067052 1.9360001 2.0748711e-38
0.24153906 -0.44067052 1.9360001 2.0840907e-38
0.24522667 -0.44067052 1.9360001 2.0932746e-38
0.2489143 -0.44067052 1.9360001 2.0932746e-38
0.25260192 -0.44067052 1.9360001 2.1024942e-38
0.25628951 -0.44067052 1.9360001 2.1209333e-38
0.25997716 -0.44067052 1.9360001 2.1301529e-38
0.26366478 -0.44067052 1.9360001 2.1393723e-38
0.26735237 -0.44067052 1.9360001 2.157847e-38
0.27103999 -0.44067052 1.9360001 2.157847e-38
0.27472764 -0.44067052 1.9360001 2.1670665e-38
0.27841526 -0.44067052 1.9360001 2.1762859e-38
0.28210285 -0.44067052 1.9360001 2.1946889e-38
0.2857905 -0.44067052 1.9360001 2.2039083e-38
0.28798288 -0.43839431 1.9260001 2.2131277e-38
0.29165143 -0.43839431 1.9260001 2.2223471e-38
0.29532003 -0.43839431 1.9260001 2.2499334e-38
0.29898858 -0.43839431 1.9260001 2.2499334e-38
0.3042286 -0.44067052 1.9360001 2.2315305e-38
0.30966574 -0.4431743 1.9470001 2.2407501e-38
0.31337431 -0.4431743 1.9470001 2.2499334e-38
0.31529146 -0.44067052 1.9360001 2.2499334e-38
0.31897905 -0.44067052 1.9360001 2.2683365e-38
0.32100001 -0.43839431 1.9260001 2.2683365e-38
0.32466859 -0.43839431 1.9260001 2.2683365e-38
0.32833716 -0.43839431 1.9260001 2.2683365e-38
0.33372954 -0.44067052 1.9360001 2.2774842e-38
0.33567429 -0.43839431 1.9260001 2.2774842e-38
0.33934289 -0.43839431 1.9260001 2.2774842e-38
0.52708095 -0.4358905 1.9150001 1.6231197e-38
nan nan nan 4.1589291e-39
-1.9986925 -0.79880291 3.5390003 4.0620504e-39
nan nan nan 5.4442239e-39
nan nan nan 4.0624147e-39
nan nan nan 1.1252427e-42
-0.48354861 -0.27221143 1.2060001 7.8333817e-39
-0.28443336 -0.27514574 1.2190001 1.1246438e-38
-0.10208001 -0.27808005 1.2320001 1.4468966e-38
nan nan nan 1.3365848e-38
-0.013853334 -0.46903431 2.0780001 1.2724503e-38
-0.0059371428 -0.46903431 2.0780001 1.7427154e-38
-0.0019666667 -0.46610001 2.0650001 7.6544177e-39
0.34301144 -0.43472573 1.9260001 7.8511306e-39
0.34848002 -0.43698287 1.9360001 8.2199033e-39
0.35216764 -0.43698287 1.9360001 8.4042945e-39
0.35787717 -0.43946573 1.9470001 8.4957741e-39
0.36158574 -0.43946573 1.9470001 8.4957741e-39
0.36529431 -0.43946573 1.9470001 9.04715e-39
0.37127718 -0.44217429 1.9590001 9.3237369e-39
0.37500861 -0.44217429 1.9590001 1.015133e-38
0.37874001 -0.44217429 1.9590001 1.0612308e-38
0.38247144 -0.44217429 1.9590001 1.0795983e-38
0.38620287 -0.44217429 1.9590001 1.0980374e-38
0.38754573 -0.43946573 1.9470001 1.1348078e-38
0.39125431 -0.43946573 1.9470001 1.1624665e-38
0.39496288 -0.43946573 1.9470001 1.1624665e-38
0.39867148 -0.43946573 1.9470001 1.171686e-38
0.4001067 -0.43698287 1.9360001 1.1993447e-38
0.40379429 -0.43698287 1.9360001 1.2270034e-38
0.40748191 -0.43698287 1.9360001 1.2269321e-38
0.41116956 -0.43698287 1.9360001 1.2269321e-38
0.41485718 -0.43698287 1.9360001 1.2821773e-38
0.41854477 -0.43698287 1.9360001 1.3282751e-38
0.42223239 -0.43698287 1.9360001 1.365046e-38
0.42592004 -0.43698287 1.9360001 1.365046e-38
0.43204859 -0.43946573 1.9470001 1.3927047e-38
0.43575719 -0.43946573 1.9470001 1.429583e-38
0.43946573 -0.43946573 1.9470001 1.4112515e-38
0.4431743 -0.43946573 1.9470001 1.4112515e-38
0.44688287 -0.43946573 1.9470001 1.4297625e-38
0.44804573 -0.43698287 1.9360001 1.4574212e-38
0.45173335 -0.43698287 1.9360001 1.4390543e-38
0.45542097 -0.43698287 1.9360001 1.4390543e-38
0.45910859 -0.43698287 1.9360001 1.4299072e-38
0.46279621 -0.43698287 1.9360001 1.4299072e-38
0.46648383 -0.43698287 1.9360001 1.4114684e-38
0.47017145 -0.43698287 1.9360001 1.3930295e-38
0.47385907 -0.43698287 1.9360001 1.34704e-38
0.47754669 -0.43698287 1.9360001 1.3193818e-38
0.47874859 -0.43472573 1.9260001 1.3101975e-38
0.48241717 -0.43472573 1.9260001 1.3101975e-38
0.48608574 -0.43472573 1.9260001 1.3468956e-38
0.48975429 -0.43472573 1.9260001 1.3561151e-38
0.4934229 -0.43472573 1.9260001 1.3561504e-38
0.49709147 -0.43472573 1.9260001 1.3561504e-38
0.50076002 -0.43472573 1.9260001 1.3100533e-38
0.50442857 -0.43472573 1.9260001 1.2916142e-38
0.51073527 -0.43698287 1.9360001 1.3098391e-38
0.51442289 -0.43698287 1.9360001 1.2176434e-38
0.51543432 -0.43472573 1.9260001 1.30047e-38
0.51910287 -0.43472573 1.9260001 1.3281287e-38
0.52277148 -0.43472573 1.9260001 1.2822081e-38
0.52644002 -0.43472573 1.9260001 1.5311363e-38
nan nan nan 9.2286098e-39
-1.9986925 -0.79206192 3.5390003 4.8903719e-39
nan nan nan 5.0750911e-39
nan nan nan 1.3891324e-39
nan nan nan 8.308719e-40
nan nan nan 2.3038762e-39
-1.2430096 -0.59980953 2.6800001 6.4718689e-40
-1.2476048 -0.60450953 2.7010002 1.8457301e-39
-1.2424601 -0.60450953 2.7010002 1.385859e-39
-1.2123809 -0.59980953 2.6800001 1.0134639e-39
-1.2072762 -0.59980953 2.6800001 2.1198114e-39
-1.2021714 -0.59980953 2.6800001 1.8439715e-39
-1.1970667 -0.59980953 2.6800001 1.8445011e-40
-0.48354861 -0.26991433 1.2060001 7.6489905e-39
-0.28443336 -0.27282384 1.2190001 1.1061703e-38
-0.10208001 -0.27573335 1.2320001 1.4286382e-38
nan nan nan 1.3090007e-38
nan nan nan 9.0362858e-39
-0.14749999 -0.4621667 2.0650001 9.8649548e-39
-0.14356667 -0.4621667 2.0650001 1.0418129e-38
-0.13963334 -0.4621667 2.0650001 1.0601441e-38
-0.13491143 -0.459481 2.0530002 1.0601441e-38
-0.13100097 -0.459481 2.0530002 1.0509248e-38
-0.12709048 -0.459481 2.0530002 1.0785835e-38
-0.12318002 -0.459481 2.0530002 1.0878028e-38
-0.11926953 -0.459481 2.0530002 1.0970223e-38
-0.11535906 -0.459481 2.0530002 1.096987e-38
-0.11144858 -0.459481 2.0530002 1.0785479e-38
-0.1075381 -0.459481 2.0530002 1.0786188e-38
-0.10362763 -0.459481 2.0530002 1.1062775e-38
-0.1003 -0.4621667 2.0650001 1.0879112e-38
-0.096366674 -0.4621667 2.0650001 1.0879112e-38
-0.091896199 -0.459481 2.0530002 1.0971305e-38
-0.087985724 -0.459481 2.0530002 1.1063501e-38
-0.084075242 -0.459481 2.0530002 1.1246463e-38
-0.079657152 -0.45657149 2.0400002 1.1246463e-38
-0.075771436 -0.45657149 2.0400002 1.1063148e-38
-0.071885727 -0.45657149 2.0400002 1.1063148e-38
-0.068000011 -0.45657149 2.0400002 1.0971302e-38
-0.064522862 -0.459481 2.0530002 1.1247889e-38
-0.060612384 -0.459481 2.0530002 1.1523047e-38
-0.05670191 -0.459481 2.0530002 1.1430851e-38
-0.052791435 -0.459481 2.0530002 1.1523047e-38
-0.048880957 -0.459481 2.0530002 1.1615242e-38
-0.044970483 -0.459481 2.0530002 1.1155699e-38
-0.041060001 -0.459481 2.0530002 1.1155699e-38
-0.037149526 -0.459481 2.0530002 1.1247539e-38
-0.017811429 -0.46507621 2.0780001 1.2451467e-38
-0.0059371428 -0.46507621 2.0780001 1.6409049e-38
0.52644002 -0.43105716 1.9260001 1.7154546e-38
0.54023623 -0.43329525 1.9360001 1.5035172e-38
0.54392385 -0.43329525 1.9360001 1.1162955e-38
0.5507229 -0.43575719 1.9470001 1.088893e-38
0.55443144 -0.43575719 1.9470001 1.1626495e-38
0.55498666 -0.43329525 1.9360001 1.1903079e-38
0.55867434 -0.43329525 1.9360001 1.208747e-38
0.56236196 -0.43329525 1.9360001 1.2180382e-38
0.56604958 -0.43329525 1.9360001 1.2180382e-38
0.5697372 -0.43329525 1.9360001 1.2640997e-38
0.57342476 -0.43329525 1.9360001 1.2640997e-38
0.57711238 -0.43329525 1.9360001 1.3010136e-38
0.5808 -0.43329525 1.9360001 1.3010136e-38
0.58448768 -0.43329525 1.9360001 1.291794e-38
0.5881753 -0.43329525 1.9360001 1.3102331e-38
0.59186292 -0.43329525 1.9360001 1.3931013e-38
0.59555054 -0.43329525 1.9360001 1.4023207e-38
0.5992381 -0.43329525 1.9360001 1.4023925e-38
0.60635149 -0.43575719 1.9470001 1.4116119e-38
0.61006004 -0.43575719 1.9470001 1.411576e-38
0.61376858 -0.43575719 1.9470001 1.4484537e-38
0.61747718 -0.43575719 1.9470001 1.5129179e-38
0.61767626 -0.43329525 1.9360001 1.5221373e-38
0.62136382 -0.43329525 1.9360001 1.5314644e-38
0.62505144 -0.43329525 1.9360001 1.5314644e-38
0.62873906 -0.43329525 1.9360001 1.5406121e-38
0.63242668 -0.43329525 1.9360001 1.5590509e-38
0.63282859 -0.43105716 1.9260001 1.5683062e-38
0.63649714 -0.43105716 1.9260001 1.586745e-38
0.63650954 -0.42859524 1.9150001 1.5960003e-38
0.64015716 -0.42859524 1.9150001 1.6144392e-38
0.64380479 -0.42859524 1.9150001 1.651281e-38
0.64745241 -0.42859524 1.9150001 1.651281e-38
0.65110004 -0.42859524 1.9150001 1.6604646e-38
0.65474766 -0.42859524 1.9150001 1.6881228e-38
0.65839523 -0.42859524 1.9150001 1.7157452e-38
0.66204286 -0.42859524 1.9150001 1.7157452e-38
0.66569048 -0.42859524 1.9150001 1.7249646e-38
0.66933817 -0.42859524 1.9150001 1.7341841e-38
0.67298573 -0.42859524 1.9150001 1.7434394e-38
0.67663336 -0.42859524 1.9150001 1.7526588e-38
0.68028098 -0.42859524 1.9150001 1.7527305e-38
0.68392855 -0.42859524 1.9150001 1.7619499e-38
0.68757617 -0.42859524 1.9150001 1.7987918e-38
0.69122386 -0.42859524 1.9150001 1.7895723e-38
0.69487149 -0.42859524 1.9150001 1.7895365e-38
0.70253146 -0.43105716 1.9260001 1.7987559e-38
0.70620006 -0.43105716 1.9260001 1.8263424e-38
0.70986861 -0.43105716 1.9260001 1.8263424e-38
0.71353716 -0.43105716 1.9260001 1.817123e-38
0.71720576 -0.43105716 1.9260001 1.8263424e-38
0.72087431 -0.43105716 1.9260001 1.8356336e-38
0.72454286 -0.43105716 1.9260001 1.8632919e-38
0.72821146 -0.43105716 1.9260001 1.8817666e-38
0.7277 -0.42859524 1.9150001 1.9002054e-38
0.73134762 -0.42859524 1.9150001 1.9186801e-38
0.73921716 -0.43105716 1.9260001 1.9094607e-38
0.74288571 -0.43105716 1.9260001 1.9002413e-38
0.74655432 -0.43105716 1.9260001 1.9002413e-38
0.75022292 -0.43105716 1.9260001 1.9186084e-38
0.75389147 -0.43105716 1.9260001 1.9370472e-38
0.75756001 -0.43105716 1.9260001 1.9738891e-38
0.76122862 -0.43105716 1.9260001 1.9831085e-38
0.76489717 -0.43105716 1.9260001 2.010695e-38
0.76856577 -0.43105716 1.9260001 2.0199144e-38
0.77223432 -0.43105716 1.9260001 2.0107667e-38
0.77590293 -0.43105716 1.9260001 2.0292056e-38
0.77957147 -0.43105716 1.9260001 2.0568639e-38
0.78324002 -0.43105716 1.9260001 2.0660833e-38
0.78241432 -0.42859524 1.9150001 2.0753027e-38
0.78606194 -0.42859524 1.9150001 2.0845221e-38
0.79424578 -0.43105716 1.9260001 2.1121445e-38
0.79335713 -0.42859524 1.9150001 2.1121445e-38
0.79700482 -0.42859524 1.9150001 2.1488429e-38
0.80065244 -0.42859524 1.9150001 2.1580623e-38
0.80430001 -0.42859524 1.9150001 2.1856128e-38
nan nan nan 8.5836005e-39
-1.9919515 -0.785321 3.5390003 2.6787334e-39
-1.8649306 -0.77733243 3.5030003 3.3269712e-39
nan nan nan 6.6424364e-39
nan nan nan 2.1302876e-39
nan nan nan 1.6574152e-39
nan nan nan 5.2562047e-39
nan nan nan 6.464358e-40
-1.2629534 -0.60424662 2.723 3.3200965e-39
-1.2424601 -0.59936482 2.7010002 4.1484502e-39
-1.2123809 -0.59470475 2.6800001 1.9347041e-39
nan nan nan 5.5180611e-40
-0.48354861 -0.26761717 1.2060001 6.9135932e-39
-0.10208001 -0.27338669 1.2320001 1.4745562e-38
nan nan nan 1.3273647e-38
-0.033433333 -0.45823336 2.0650001 1.2262047e-38
-0.0295 -0.45823336 2.0650001 1.2262044e-38
-0.025566667 -0.45823336 2.0650001 1.170887e-38
-0.021769525 -0.4611181 2.0780001 1.1432646e-38
-0.017811429 -0.4611181 2.0780001 1.6872188e-38
-0.0059371428 -0.4611181 2.0780001 1.392331e-38
0.0019666667 -0.45823336 2.0650001 1.1617761e-38
0.0059000002 -0.45823336 2.0650001 1.2078739e-38
0.009833334 -0.45823336 2.0650001 1.2354242e-38
0.013766667 -0.45823336 2.0650001 1.2446438e-38
0.017700002 -0.45823336 2.0650001 1.2446438e-38
0.021633333 -0.45823336 2.0650001 1.2354242e-38
0.025566667 -0.45823336 2.0650001 1.2354603e-38
0.0295 -0.45823336 2.0650001 1.2446798e-38
0.033643808 -0.4611181 2.0780001 1.2538634e-38
0.037366666 -0.45823336 2.0650001 1.2630829e-38
0.041300002 -0.45823336 2.0650001 1.2630827e-38
0.045518097 -0.4611181 2.0780001 1.2723022e-38
0.049476191 -0.4611181 2.0780001 1.2723375e-38
0.053100001 -0.45823336 2.0650001 1.2723375e-38
0.057033334 -0.45823336 2.0650001 1.2538634e-38
0.060966667 -0.45823336 2.0650001 1.2538634e-38
0.064900003 -0.45823336 2.0650001 1.2538994e-38
0.068833336 -0.45823336 2.0650001 1.2538994e-38
0.072766662 -0.45823336 2.0650001 1.2355682e-38
0.076700002 -0.45823336 2.0650001 1.2263486e-38
0.080633335 -0.45823336 2.0650001 1.2446798e-38
0.084566668 -0.45823336 2.0650001 1.2538994e-38
0.088500001 -0.45823336 2.0650001 1.2446801e-38
0.092433333 -0.45823336 2.0650001 1.2446801e-38
0.096366674 -0.45823336 2.0650001 1.226313e-38
0.1003 -0.45823336 2.0650001 1.2447521e-38
0.10423333 -0.45823336 2.0650001 1.2447521e-38
0.10816667 -0.45823336 2.0650001 1.2355326e-38
0.1121 -0.45823336 2.0650001 1.2723385e-38
0.11603334 -0.45823336 2.0650001 1.2907776e-38
0.11996667 -0.45823336 2.0650001 1.2631915e-38
0.1239 -0.45823336 2.0650001 1.2447524e-38
0.12783334 -0.45823336 2.0650001 1.2539722e-38
0.13176668 -0.45823336 2.0650001 1.2631918e-38
0.1357 -0.45823336 2.0650001 1.2447524e-38
0.13963334 -0.45823336 2.0650001 1.2447524e-38
0.14356667 -0.45823336 2.0650001 1.2447521e-38
0.14749999 -0.45823336 2.0650001 1.2539717e-38
0.15143333 -0.45823336 2.0650001 1.2447524e-38
0.15536667 -0.45823336 2.0650001 1.2447524e-38
0.1593 -0.45823336 2.0650001 1.2447524e-38
0.16323334 -0.45823336 2.0650001 1.253972e-38
0.16716668 -0.45823336 2.0650001 1.2539722e-38
0.17109999 -0.45823336 2.0650001 1.2631918e-38
0.17503333 -0.45823336 2.0650001 1.2631915e-38
0.17896667 -0.45823336 2.0650001 1.2631915e-38
0.1829 -0.45823336 2.0650001 1.2631915e-38
0.18683334 -0.45823336 2.0650001 1.253972e-38
0.19076668 -0.45823336 2.0650001 1.2723388e-38
0.19470002 -0.45823336 2.0650001 1.2907779e-38
0.19863333 -0.45823336 2.0650001 1.2723761e-38
0.20256667 -0.45823336 2.0650001 1.2539369e-38
0.21830001 -0.45823336 2.0650001 1.2264215e-38
0.22223333 -0.45823336 2.0650001 1.2263864e-38
0.22616667 -0.45823336 2.0650001 1.2171669e-38
0.23010001 -0.45823336 2.0650001 1.226351e-38
0.23403333 -0.45823336 2.0650001 1.2355705e-38
0.23796667 -0.45823336 2.0650001 1.2263864e-38
0.24190001 -0.45823336 2.0650001 1.2171669e-38
0.24583334 -0.45823336 2.0650001 1.226351e-38
0.24976666 -0.45823336 2.0650001 1.226351e-38
0.25370002 -0.45823336 2.0650001 1.2263861e-38
0.25763336 -0.45823336 2.0650001 1.2356057e-38
0.26156667 -0.45823336 2.0650001 1.2172029e-38
0.26549998 -0.45823336 2.0650001 1.2172029e-38
0.26943332 -0.45823336 2.0650001 1.2172393e-38
0.27336666 -0.45823336 2.0650001 1.2080197e-38
0.27568859 -0.45557052 2.0530002 1.1988002e-38
0.27959907 -0.45557052 2.0530002 1.1988002e-38
0.28350955 -0.45557052 2.0530002 1.1895812e-38
0.28742003 -0.45557052 2.0530002 1.1803616e-38
0.29133052 -0.45557052 2.0530002 1.189509e-38
0.29524097 -0.45557052 2.0530002 1.2079481e-38
0.29915145 -0.45557052 2.0530002 1.2079837e-38
0.30306193 -0.45557052 2.0530002 1.2079837e-38
0.30697241 -0.45557052 2.0530002 1.1895446e-38
0.3108829 -0.45557052 2.0530002 1.1895446e-38
0.31479335 -0.45557052 2.0530002 1.1988007e-38
0.31870383 -0.45557052 2.0530002 1.1988007e-38
0.32261431 -0.45557052 2.0530002 1.1987652e-38
0.32843333 -0.45823336 2.0650001 1.1987652e-38
0.33043528 -0.45557052 2.0530002 1.1895456e-38
0.33434576 -0.45557052 2.0530002 1.1895456e-38
0.34023333 -0.45823336 2.0650001 1.1803616e-38
0.34416667 -0.45823336 2.0650001 1.1803616e-38
0.35029143 -0.4611181 2.0780001 1.1526673e-38
0.35203335 -0.45823336 2.0650001 1.1526673e-38
0.35596669 -0.45823336 2.0650001 1.1526686e-38
0.35990003 -0.45823336 2.0650001 1.143449e-38
0.36383334 -0.45823336 2.0650001 1.1342282e-38
0.52917337 -0.42960763 1.9360001 1.7982535e-38
0.54023623 -0.42960763 1.9360001 1.0518696e-38
0.81258863 -0.42738858 1.9260001 6.2006434e-39
0.81625718 -0.42738858 1.9260001 6.9356875e-39
0.81992579 -0.42738858 1.9260001 6.9356875e-39
0.82359433 -0.42738858 1.9260001 7.2119115e-39
0.82726288 -0.42738858 1.9260001 7.6728896e-39
0.83093143 -0.42738858 1.9260001 8.1320699e-39
0.83460009 -0.42738858 1.9260001 8.3164612e-39
0.83826864 -0.42738858 1.9260001 8.4086568e-39
0.84630859 -0.42960763 1.9360001 8.5008524e-39
0.84999621 -0.42960763 1.9360001 9.0525899e-39
0.86382574 -0.43471146 1.9590001 9.513568e-39
0.85737145 -0.42960763 1.9360001 9.6979523e-39
0.86105907 -0.42960763 1.9360001 9.9745392e-39
0.86474675 -0.42960763 1.9360001 1.0250047e-38
0.87336862 -0.43204859 1.9470001 1.0526634e-38
0.87212193 -0.42960763 1.9360001 1.0895056e-38
0.87580955 -0.42960763 1.9360001 1.1263837e-38
0.87949717 -0.42960763 1.9360001 1.1539703e-38
0.88318479 -0.42960763 1.9360001 1.1539703e-38
0.88687241 -0.42960763 1.9360001 1.2000315e-38
0.89056003 -0.42960763 1.9360001 1.2461286e-38
0.89424771 -0.42960763 1.9360001 1.2828987e-38
0.90303719 -0.43204859 1.9470001 1.2921181e-38
0.90674579 -0.43204859 1.9470001 1.347327e-38
0.91045433 -0.43204859 1.9470001 1.3842047e-38
0.91979718 -0.43471146 1.9590001 1.3841689e-38
0.92352861 -0.43471146 1.9590001 1.3841689e-38
0.92726004 -0.43471146 1.9590001 1.4117912e-38
0.92528868 -0.43204859 1.9470001 1.4302301e-38
0.92374861 -0.42960763 1.9360001 1.4578525e-38
0.92264575 -0.42738858 1.9260001 1.4762913e-38
0.92631435 -0.42738858 1.9260001 1.4855466e-38
0.9299829 -0.42738858 1.9260001 1.4947661e-38
nan nan nan 7.8467515e-39
-1.9919515 -0.77858001 3.5390003 3.8754913e-39
-1.8649306 -0.77066004 3.5030003 2.1316678e-39
nan nan nan 5.5397308e-39
nan nan nan 1.4831231e-39
nan nan nan 7.7772065e-43
nan nan nan 1.3808381e-39
nan nan nan 1.1053162e-39
-1.2726934 -0.60368007 2.7440002 3.5952764e-39
-1.2424601 -0.59422004 2.7010002 3.8729577e-39
-1.202881 -0.58498007 2.6590002 2.6726167e-39
-1.2021714 -0.58960003 2.6800001 2.0308766e-39
-0.48354861 -0.26532003 1.2060001 6.2682238e-39
-0.10208001 -0.27104002 1.2320001 1.4471129e-38
nan nan nan 1.3090007e-38
-0.021769525 -0.45716 2.0780001 1.0516109e-38
-0.0098952381 -0.45716 2.0780001 1.3556785e-38
0.20650001 -0.45430002 2.0650001 1.2447904e-38
0.21043333 -0.45430002 2.0650001 1.2447904e-38
0.21436667 -0.45430002 2.0650001 1.2447904e-38
0.36776665 -0.45430002 2.0650001 1.1987298e-38
0.37169999 -0.45430002 2.0650001 1.1894752e-38
0.37563333 -0.45430002 2.0650001 1.2079144e-38
0.37956667 -0.45430002 2.0650001 1.2172055e-38
0.38350001 -0.45430002 2.0650001 1.207986e-38
0.38743335 -0.45430002 2.0650001 1.2079863e-38
0.39136666 -0.45430002 2.0650001 1.1895471e-38
0.3953 -0.45430002 2.0650001 1.1711443e-38
0.39691335 -0.45166004 2.0530002 1.1803639e-38
0.40082386 -0.45166004 2.0530002 1.1988027e-38
0.40473431 -0.45166004 2.0530002 1.1895831e-38
0.41103336 -0.45430002 2.0650001 1.1895115e-38
0.41255528 -0.45166004 2.0530002 1.1249746e-38
0.41646573 -0.45166004 2.0530002 1.1432693e-38
0.42283332 -0.45430002 2.0650001 1.1432693e-38
0.42676666 -0.45430002 2.0650001 1.124937e-38
0.4307 -0.45430002 2.0650001 1.1157175e-38
0.43463334 -0.45430002 2.0650001 1.0882023e-38
0.43601814 -0.45166004 2.0530002 1.0974218e-38
0.43992862 -0.45166004 2.0530002 1.1157538e-38
0.44383907 -0.45166004 2.0530002 1.1249733e-38
0.44774958 -0.45166004 2.0530002 1.1341216e-38
0.45166004 -0.45166004 2.0530002 1.1433411e-38
0.45557052 -0.45166004 2.0530002 1.1526326e-38
0.45657149 -0.44880006 2.0400002 1.1618521e-38
0.46045718 -0.44880006 2.0400002 1.1618884e-38
0.46434292 -0.44880006 2.0400002 1.171108e-38
0.46822861 -0.44880006 2.0400002 1.1528131e-38
0.47211435 -0.44880006 2.0400002 1.1343739e-38
0.47600004 -0.44880006 2.0400002 1.1434859e-38
0.47988576 -0.44880006 2.0400002 1.1527055e-38
0.48377147 -0.44880006 2.0400002 1.1618531e-38
0.48765719 -0.44880006 2.0400002 1.1526336e-38
0.49154291 -0.44880006 2.0400002 1.1158639e-38
0.49542862 -0.44880006 2.0400002 1.1066444e-38
0.49931431 -0.44880006 2.0400002 1.1067162e-38
0.50320005 -0.44880006 2.0400002 1.0974967e-38
0.50708574 -0.44880006 2.0400002 1.1066449e-38
0.51097149 -0.44880006 2.0400002 1.125084e-38
0.51813811 -0.45166004 2.0530002 1.1251203e-38
0.51874292 -0.44880006 2.0400002 1.0974616e-38
0.51955432 -0.44616002 2.0280001 1.1066809e-38
0.52847147 -0.42834002 1.9470001 1.2451514e-38
0.54330575 -0.42834002 1.9470001 1.1533173e-38
0.94964862 -0.43098003 1.9590001 9.4159578e-39
0.94754004 -0.42834002 1.9470001 9.0471752e-39
0.95124865 -0.42834002 1.9470001 8.7713072e-39
0.95495719 -0.42834002 1.9470001 9.0478941e-39
0.95866579 -0.42834002 1.9470001 1.0427582e-38
0.96830577 -0.43098003 1.9590001 1.0335386e-38
0.97749531 -0.43340003 1.9700001 1.0519056e-38
0.97576857 -0.43098003 1.9590001 1.0795643e-38
0.97950006 -0.43098003 1.9590001 1.0795996e-38
0.98323148 -0.43098003 1.9590001 1.1164778e-38
0.98696285 -0.43098003 1.9590001 1.2177848e-38
0.98462576 -0.42834002 1.9470001 1.2085653e-38
0.98275054 -0.42592004 1.9360001 1.1903782e-38
0.9864381 -0.42592004 1.9360001 1.1995978e-38
0.99012578 -0.42592004 1.9360001 1.2272921e-38
0.99381334 -0.42592004 1.9360001 1.2272921e-38
0.99750102 -0.42592004 1.9360001 1.2180722e-38
1.0011886 -0.42592004 1.9360001 1.2457309e-38
1.0105858 -0.42834002 1.9470001 1.2917567e-38
1.0205458 -0.43098003 1.9590001 1.2825372e-38
1.0242772 -0.43098003 1.9590001 1.2916846e-38
1.0280086 -0.43098003 1.9590001 1.3101237e-38
1.0317401 -0.43098003 1.9590001 1.3285265e-38
1.0354716 -0.43098003 1.9590001 1.3377461e-38
1.0450381 -0.43340003 1.9700001 1.3469656e-38
1.0546467 -0.43582001 1.9810001 1.3561852e-38
1.0466657 -0.43098003 1.9590001 1.3654401e-38
1.0503973 -0.43098003 1.9590001 1.3562205e-38
1.0476714 -0.42834002 1.9470001 1.3470363e-38
1.0454401 -0.42592004 1.9360001 1.3470363e-38
1.0491277 -0.42592004 1.9360001 1.3561476e-38
1.0528153 -0.42592004 1.9360001 1.3469281e-38
1.0565028 -0.42592004 1.9360001 1.3469281e-38
1.0601906 -0.42592004 1.9360001 1.3377085e-38
1.0638781 -0.42592004 1.9360001 1.3376722e-38
nan nan nan 1.3376722e-38
nan nan nan 1.3284527e-38
nan nan nan 1.3376722e-38
nan nan nan 1.3468915e-38
nan nan nan 1.3376719e-38
nan nan nan 1.3192691e-38
nan nan nan 1.3377082e-38
nan nan nan 1.3653662e-38
nan nan nan 1.3561467e-38
nan nan nan 1.3469268e-38
nan nan nan 1.3284877e-38
nan nan nan 1.3100849e-38
nan nan nan 1.3377436e-38
nan nan nan 1.3745502e-38
nan nan nan 1.3561111e-38
nan nan nan 1.3469278e-38
nan nan nan 1.3561474e-38
nan nan nan 1.3837698e-38
nan nan nan 1.3929893e-38
nan nan nan 1.3929893e-38
nan nan nan 1.3929893e-38
nan nan nan 1.4022089e-38
nan nan nan 1.4114285e-38
nan nan nan 1.4115364e-38
nan nan nan 1.3838777e-38
nan nan nan 1.3745865e-38
nan nan nan 1.4022452e-38
nan nan nan 1.4115366e-38
nan nan nan 1.4115366e-38
nan nan nan 1.4115366e-38
nan nan nan 7.2935777e-39
-1.9919515 -0.77183914 3.5390003 4.4286679e-39
-1.8396915 -0.75635433 3.4680002 6.0038941e-39
nan nan nan 2.8674841e-39
nan nan nan 9.2021308e-40
nan nan nan 1.014187e-39
-1.2726934 -0.59845334 2.7440002 3.3190048e-39
-1.2674668 -0.59845334 2.7440002 5.5317e-39
-1.2622401 -0.59845334 2.7440002 3.7792767e-39
-1.202881 -0.57991523 2.6590002 2.1204995e-39
-1.1978163 -0.57991523 2.6590002 4.1488033e-39
nan nan nan 2.2152133e-39
-0.48515239 -0.26389524 1.21 5.6239334e-39
-0.10208001 -0.26869336 1.2320001 1.4653357e-38
nan nan nan 1.3550237e-38
-0.021769525 -0.45320192 2.0780001 1.2909961e-38
-0.0098952381 -0.45320192 2.0780001 1.2816319e-38
0.52651429 -0.44491431 2.0400002 1.2175683e-38
0.53040004 -0.44491431 2.0400002 1.2267516e-38
0.53114289 -0.44229716 2.0280001 1.2267516e-38
0.53500575 -0.44229716 2.0280001 1.2267163e-38
0.53886861 -0.44229716 2.0280001 1.2174967e-38
0.54273146 -0.44229716 2.0280001 1.2174967e-38
0.54719996 -0.43968001 2.016 1.2358958e-38
0.55234575 -0.43466383 1.9930001 1.7518637e-38
0.56977141 -0.44229716 2.0280001 1.0793122e-38
0.57363433 -0.44229716 2.0280001 1.1347365e-38
0.57749712 -0.44229716 2.0280001 1.1808343e-38
0.58136004 -0.44229716 2.0280001 1.2083485e-38
0.58522284 -0.44229716 2.0280001 1.2175681e-38
0.58908576 -0.44229716 2.0280001 1.189982e-38
0.59294856 -0.44229716 2.0280001 1.1715428e-38
0.59681147 -0.44229716 2.0280001 1.189982e-38
0.60067427 -0.44229716 2.0280001 1.1992015e-38
0.60453719 -0.44229716 2.0280001 1.1992366e-38
0.60839999 -0.44229716 2.0280001 1.2084561e-38
0.61588573 -0.44491431 2.0400002 1.1900536e-38
0.61977148 -0.44491431 2.0400002 1.1716144e-38
0.62365723 -0.44491431 2.0400002 1.1807627e-38
0.62754291 -0.44491431 2.0400002 1.1715431e-38
0.6314286 -0.44491431 2.0400002 1.1990939e-38
0.63531435 -0.44491431 2.0400002 1.217533e-38
0.63544005 -0.44229716 2.0280001 1.1899822e-38
0.63930291 -0.44229716 2.0280001 1.1899822e-38
0.64316577 -0.44229716 2.0280001 1.1900185e-38
0.64702863 -0.44229716 2.0280001 1.1900185e-38
0.65089148 -0.44229716 2.0280001 1.1899829e-38
0.65475434 -0.44229716 2.0280001 1.1899829e-38
0.6586172 -0.44229716 2.0280001 1.1807987e-38
0.66640007 -0.44491431 2.0400002 1.1715791e-38
0.67455721 -0.44774958 2.0530002 1.1623596e-38
0.67846769 -0.44774958 2.0530002 1.1715791e-38
0.68237817 -0.44774958 2.0530002 1.1623596e-38
0.68628865 -0.44774958 2.0530002 1.1623596e-38
0.69019908 -0.44774958 2.0530002 1.1715431e-38
0.69410956 -0.44774958 2.0530002 1.1807627e-38
0.69360006 -0.44491431 2.0400002 1.1807271e-38
0.69748574 -0.44491431 2.0400002 1.1807271e-38
0.70137149 -0.44491431 2.0400002 1.1807271e-38
0.70525724 -0.44491431 2.0400002 1.1807271e-38
0.70914292 -0.44491431 2.0400002 1.1715075e-38
0.71302861 -0.44491431 2.0400002 1.162288e-38
0.71691436 -0.44491431 2.0400002 1.1531766e-38
0.7208001 -0.44491431 2.0400002 1.1531766e-38
0.72468579 -0.44491431 2.0400002 1.1531047e-38
0.73321432 -0.44774958 2.0530002 1.1623242e-38
0.73245722 -0.44491431 2.0400002 1.1439217e-38
0.73634297 -0.44491431 2.0400002 1.1347021e-38
0.74022859 -0.44491431 2.0400002 1.1439573e-38
0.73973721 -0.44229716 2.0280001 1.1623964e-38
0.74360001 -0.44229716 2.0280001 1.1716157e-38
0.74746293 -0.44229716 2.0280001 1.1716157e-38
0.75132573 -0.44229716 2.0280001 1.1715438e-38
0.75518864 -0.44229716 2.0280001 1.1531047e-38
0.75905144 -0.44229716 2.0280001 1.1439567e-38
0.75426191 -0.43728095 2.0050001 1.1439567e-38
0.74068856 -0.4272486 1.9590001 1.1439195e-38
0.74442005 -0.4272486 1.9590001 1.1623586e-38
0.77908581 -0.44491431 2.0400002 1.1164052e-38
0.7829715 -0.44491431 2.0400002 1.079527e-38
0.78685719 -0.44491431 2.0400002 1.107115e-38
0.79074293 -0.44491431 2.0400002 1.1255542e-38
0.79462868 -0.44491431 2.0400002 1.1071504e-38
0.79381716 -0.44229716 2.0280001 1.0887112e-38
0.79768002 -0.44229716 2.0280001 1.0979308e-38
0.79680002 -0.43968001 2.016 1.0979308e-38
0.80063999 -0.43968001 2.016 1.0703437e-38
0.80926859 -0.44229716 2.0280001 1.0703437e-38
0.79909813 -0.43466383 1.9930001 1.0519412e-38
0.79362863 -0.42964765 1.9700001 1.0427216e-38
0.78807145 -0.42463145 1.9470001 1.0519056e-38
0.79178005 -0.42463145 1.9470001 1.0611251e-38
0.82858288 -0.44229716 2.0280001 1.0519412e-38
0.82752001 -0.43968001 2.016 1.033502e-38
0.83136004 -0.43968001 2.016 1.0519046e-38
0.84017146 -0.44229716 2.0280001 1.042685e-38
0.84403431 -0.44229716 2.0280001 1.0241743e-38
0.85291433 -0.44491431 2.0400002 1.0241743e-38
nan nan nan 7.3839671e-39
-1.9919515 -0.76509815 3.5390003 4.2464458e-39
-1.8582582 -0.75731528 3.5030003 6.279402e-39
nan nan nan 5.9996299e-39
nan nan nan 9.2887031e-40
nan nan nan 2.776813e-40
nan nan nan 3.6889196e-39
nan nan nan 4.3364722e-39
nan nan nan 4.6425579e-40
-1.2318333 -0.5886867 2.723 4.6279563e-40
nan nan nan 2.6758411e-39
-0.48876098 -0.26353619 1.2190001 5.2555166e-39
-0.10208001 -0.26634669 1.2320001 1.4378931e-38
-0.095040008 -0.26634669 1.2320001 1.3366594e-38
-0.021769525 -0.44924381 2.0780001 1.3370955e-38
-0.0098952381 -0.44924381 2.0780001 1.3369504e-38
0.55431998 -0.4384343 2.0280001 1.8717221e-38
0.5581829 -0.4384343 2.0280001 2.0838405e-38
0.56204569 -0.4384343 2.0280001 1.7058387e-38
0.85680008 -0.44102862 2.0400002 1.0978958e-38
0.86068577 -0.44102862 2.0400002 1.0702371e-38
0.86457151 -0.44102862 2.0400002 1.0518696e-38
0.8684572 -0.44102862 2.0400002 1.0610891e-38
0.87234294 -0.44102862 2.0400002 1.0793485e-38
0.87622863 -0.44102862 2.0400002 1.0609093e-38
0.88011438 -0.44102862 2.0400002 1.0609096e-38
0.88400006 -0.44102862 2.0400002 1.0516901e-38
0.88788581 -0.44102862 2.0400002 1.0516179e-38
0.8917715 -0.44102862 2.0400002 1.0423983e-38
0.89565718 -0.44102862 2.0400002 1.0332141e-38
0.89425147 -0.4384343 2.0280001 1.0239945e-38
0.89279997 -0.43584001 2.016 1.005591e-38
0.88641053 -0.43086764 1.9930001 1.0148105e-38
0.89020669 -0.43086764 1.9930001 1.0148103e-38
0.88862002 -0.42827335 1.9810001 9.9637113e-39
0.89239341 -0.42827335 1.9810001 9.6882062e-39
0.89119053 -0.42589527 1.9700001 9.4116193e-39
0.89494288 -0.42589527 1.9700001 9.3197768e-39
0.89367718 -0.42351717 1.9590001 9.3197768e-39
0.8974086 -0.42351717 1.9590001 9.5012912e-39
0.90620005 -0.42589527 1.9700001 9.5934869e-39
0.9367429 -0.4384343 2.0280001 9.7778781e-39
0.94060576 -0.4384343 2.0280001 9.5934869e-39
nan nan nan 6.7396739e-39
-1.9919515 -0.75835723 3.5390003 6.0878235e-39
-1.8773553 -0.75835723 3.5390003 6.4637932e-39
nan nan nan 4.2460927e-39
nan nan nan 2.8313516e-40
-0.48876098 -0.26121432 1.2190001 5.070059e-39
-0.10208001 -0.264 1.2320001 1.4746272e-38
nan nan nan 1.3734275e-38
-0.025566667 -0.4425 2.0650001 1.4383681e-38
-0.021769525 -0.44528574 2.0780001 1.4844309e-38
-0.0098952381 -0.44528574 2.0780001 1.392338e-38
0.95005727 -0.43714288 2.0400002 1.0792386e-38
0.95394289 -0.43714288 2.0400002 1.070019e-38
0.95782864 -0.43714288 2.0400002 1.0424667e-38
0.96171439 -0.43714288 2.0400002 1.0424667e-38
0.96560013 -0.43714288 2.0400002 1.0332121e-38
0.96948576 -0.43714288 2.0400002 9.871143e-39
0.97337151 -0.43714288 2.0400002 9.6874776e-39
0.97725725 -0.43714288 2.0400002 9.5952819e-39
0.98114294 -0.43714288 2.0400002 9.6867391e-39
0.98502868 -0.43714288 2.0400002 9.4101522e-39
0.9830972 -0.43457144 2.0280001 9.2257735e-39
0.98696011 -0.43457144 2.0280001 8.7647954e-39
0.99082285 -0.43457144 2.0280001 8.7644325e-39
0.99468577 -0.43457144 2.0280001 8.7644325e-39
0.99854863 -0.43457144 2.0280001 8.6718711e-39
1.0024115 -0.43457144 2.0280001 8.2108929e-39
1.0062743 -0.43457144 2.0280001 8.3030858e-39
1.0101372 -0.43457144 2.0280001 8.0264989e-39
1.0200001 -0.43714288 2.0400002 7.9343032e-39
1.0238857 -0.43714288 2.0400002 7.749912e-39
1.0277716 -0.43714288 2.0400002 7.5655235e-39
1.0316572 -0.43714288 2.0400002 7.3811323e-39
1.035543 -0.43714288 2.0400002 7.1974571e-39
1.0394287 -0.43714288 2.0400002 7.1052614e-39
1.0433143 -0.43714288 2.0400002 7.0116337e-39
1.0538734 -0.43992862 2.0530002 7.1038293e-39
1.0577838 -0.43992862 2.0530002 7.0119868e-39
1.0549715 -0.43714288 2.0400002 7.1041824e-39
1.0588572 -0.43714288 2.0400002 6.7357601e-39
1.0695153 -0.43992862 2.0530002 6.7357601e-39
1.0666287 -0.43714288 2.0400002 6.8272326e-39
1.0705144 -0.43714288 2.0400002 6.735037e-39
1.0744001 -0.43714288 2.0400002 6.3669649e-39
1.0782858 -0.43714288 2.0400002 6.4591606e-39
1.0821716 -0.43714288 2.0400002 6.7343153e-39
1.0929781 -0.43992862 2.0530002 6.6421197e-39
1.0968887 -0.43992862 2.0530002 6.3666048e-39
1.1007991 -0.43992862 2.0530002 6.5509961e-39
1.1047096 -0.43992862 2.0530002 6.6435574e-39
1.1086202 -0.43992862 2.0530002 6.5513618e-39
1.1125306 -0.43992862 2.0530002 6.5513618e-39
1.116441 -0.43992862 2.0530002 6.5513618e-39
1.1132573 -0.43714288 2.0400002 6.4588004e-39
1.1171429 -0.43714288 2.0400002 6.6431917e-39
1.1210287 -0.43714288 2.0400002 6.5510059e-39
1.1249144 -0.43714288 2.0400002 6.5510059e-39
nan nan nan 6.2747819e-39
nan nan nan 6.2747819e-39
nan nan nan 6.1829422e-39
nan nan nan 5.9985509e-39
nan nan nan 5.9981824e-39
nan nan nan 6.090378e-39
nan nan nan 6.2737029e-39
nan nan nan 6.2737029e-39
nan nan nan 6.0903906e-39
nan nan nan 5.9059994e-39
nan nan nan 8.0282477e-39
-1.9919515 -0.75161624 3.5390003 5.4449848e-39
-1.8773553 -0.75161624 3.5390003 6.278323e-39
nan nan nan 1.761868e-39
-0.48876098 -0.25889242 1.2190001 4.7938224e-39
-0.10241143 -0.26250288 1.2360001 1.4655518e-38
nan nan nan 1.3275477e-38
-0.025418097 -0.43601814 2.0530002 1.5031925e-38
-0.013853334 -0.44132763 2.0780001 1.5397833e-38
nan nan nan 7.474718e-39
-2.0127771 -0.7526629 3.5760002 5.8130485e-39
