# .PCD v0.7 - Point Cloud Data file format
VERSION 0.7
FIELDS x y z normal_x normal_y normal_z curvature
SIZE 4 4 4 4 4 4 4
TYPE F F F F F F F
COUNT 1 1 1 1 1 1 1
WIDTH 589
HEIGHT 1
VIEWPOINT 0 0 0 1 0 0 0
POINTS 589
DATA ascii
0.52573907 0.88766456 1.0782628 -0.0026638794 -0.26419938 -0.96446443 0.0038915605
0.53498578 0.88766456 1.0782628 -0.0050999084 -0.2628172 -0.96483219 0.0036128033
0.54423243 0.88766456 1.0782628 -0.0024977624 -0.26280102 -0.96484685 0.0032126813
0.55480003 0.88766456 1.0782629 -0.0010850409 -0.26452652 -0.96437782 0.0032516299
0.56536764 0.88766456 1.0782628 -0.0017102548 -0.26385027 -0.96456218 0.0031500019
0.57596308 0.88623267 1.0777568 -0.0013242844 -0.26862684 -0.96324342 0.004093247
0.58518195 0.88766456 1.0782628 0.00029951453 -0.26644197 -0.96385092 0.0036234467
0.59487361 0.88686907 1.0779816 0.0084225005 -0.2684221 -0.96326464 0.0044691088
0.60490048 0.88449115 1.0764617 0.013217799 -0.27437994 -0.96153057 0.0049598762
0.61475527 0.88447732 1.0760316 0.017043291 -0.27755824 -0.96055758 0.0051111793
0.62481046 0.88766456 1.0782629 0.018827608 -0.27965742 -0.95991528 0.0053868727
0.63405716 0.88766456 1.0782628 0.023194861 -0.27916092 -0.95996422 0.0056052082
0.64462483 0.88766456 1.0782628 0.026239116 -0.27729613 -0.96042609 0.0059705628
0.65213245 0.88459265 1.0745312 0.032505922 -0.28011802 -0.95941502 0.0065748985
-0.2417343 0.89988834 1.070407 0.091919892 -0.25649604 -0.96216446 0.0018504194
-0.17172381 0.89877707 1.0711212 0.027281508 -0.24702631 -0.96862465 0.0014754205
-0.16511905 0.89877719 1.0711212 0.022258051 -0.24589917 -0.96903986 0.001599074
-0.15503179 0.89766592 1.0718354 0.020341676 -0.24276102 -0.96987283 0.0016259608
-0.1456822 0.89703095 1.0722436 0.015773216 -0.2402216 -0.97058994 0.0014542002
-0.13473715 0.89766586 1.0718354 0.015058879 -0.23978125 -0.97071016 0.001364335
-0.12364116 0.89811039 1.0715498 0.017725782 -0.23882303 -0.97090125 0.0015028046
-0.10435525 0.89544332 1.0732636 0.020794554 -0.24004553 -0.97053891 0.0016119321
-0.099071436 0.89877713 1.0711212 0.019397542 -0.24198966 -0.97008491 0.0015534044
-0.083880484 0.89933276 1.0707642 0.024662532 -0.24283819 -0.96975327 0.0015538903
-0.072358839 0.89692509 1.0723115 0.026816811 -0.24331644 -0.96957618 0.00158531
-0.064726666 0.89766586 1.0718354 0.026075497 -0.24376228 -0.96948445 0.0017263702
-0.055920321 0.8984068 1.0713593 0.025864294 -0.24470279 -0.96925312 0.001604439
-0.045440763 0.89811039 1.0715498 0.02431971 -0.24527928 -0.96914738 0.0017726216
-0.033904444 0.89692509 1.0723115 0.021195922 -0.24479267 -0.96934372 0.001507016
-0.024894873 0.89475948 1.0737031 0.017316945 -0.24689546 -0.96888739 0.0017143427
-0.015851429 0.89544326 1.0732635 0.023040831 -0.24474761 -0.96931309 0.0027613165
-0.0052838097 0.89766586 1.0718354 0.053894453 -0.24247354 -0.96865988 0.0068556448
0.0045306804 0.89519763 1.0738461 0.059962038 -0.24234505 -0.96833533 0.008153188
0.015851432 0.89433205 1.0739778 0.05295388 -0.23886824 -0.96960706 0.0087854527
0.024569714 0.89899939 1.0709785 0.051777937 -0.23462956 -0.97070485 0.0097806146
0.062084764 0.89988834 1.070407 0.013492021 -0.2214307 -0.97508276 0.011598448
0.088822864 0.89644086 1.0785661 -0.0095877228 -0.21049961 -0.97754699 0.012368755
0.09422826 0.89539367 1.075937 -0.013010859 -0.21089619 -0.97742182 0.012477324
0.10435525 0.8998884 1.0704072 -0.018333782 -0.20807466 -0.9779411 0.012309369
0.12549049 0.8998884 1.0704072 -0.017709902 -0.20802404 -0.97796339 0.011745303
0.13517745 0.89840668 1.0713593 -0.017415959 -0.20581774 -0.9784354 0.011694428
0.14494452 0.89746392 1.0719652 -0.017936179 -0.20228511 -0.97916245 0.011175971
0.15643851 0.89591956 1.0729576 -0.011058025 -0.20717002 -0.97824246 0.010540636
0.16474164 0.89766598 1.0718354 -0.0098310011 -0.20900875 -0.97786433 0.010015055
0.17357315 0.89944381 1.0706927 -0.0019539755 -0.20830803 -0.97806132 0.008207472
0.18549946 0.89687204 1.0723455 0.039743755 -0.20362832 -0.97824121 0.0025379928
0.1937397 0.89618415 1.0727876 0.052689694 -0.20239037 -0.97788644 0.0016498622
0.20474766 0.89507288 1.0735018 0.054819066 -0.20375665 -0.97748566 0.0014596794
0.21444547 0.89510179 1.0769501 0.052371711 -0.20503259 -0.97735298 0.0012751039
0.22449602 0.89459664 1.075969 0.05024733 -0.20381033 -0.97772008 0.0011614567
0.23591553 0.89552182 1.0749964 0.042265095 -0.20472126 -0.97790748 0.0011000365
0.24525714 0.8964408 1.0785661 0.035964809 -0.20409262 -0.97829074 0.0012618039
0.25506744 0.8964408 1.0785661 0.028597759 -0.20430771 -0.97848886 0.001404857
0.2650623 0.896173 1.0782428 0.023172103 -0.20374037 -0.97875065 0.0013738771
0.27525178 0.89483351 1.0766273 0.012535404 -0.20681512 -0.9782998 0.0015824474
0.2852447 0.89389914 1.075877 0.0039840555 -0.20967068 -0.97776395 0.0017055604
0.29515073 0.89498013 1.0768032 -0.0042035636 -0.21578115 -0.97643274 0.0022919276
0.30517504 0.89635152 1.078083 -0.011230969 -0.21458492 -0.97664076 0.0021609431
0.31485772 0.89456505 1.0763046 -0.014311987 -0.21782242 -0.97588348 0.0023397347
0.32451174 0.89396697 1.0759954 -0.013624887 -0.22075057 -0.97523516 0.0022678275
0.33466107 0.89563787 1.0775962 -0.014885593 -0.21937044 -0.975528 0.0018865519
0.34459448 0.89547491 1.0770255 -0.017451063 -0.22081594 -0.97515941 0.0016971446
0.35465497 0.89483345 1.0766273 -0.010928347 -0.22531007 -0.97422588 0.0020573398
0.36501783 0.89429545 1.0759825 -0.0066916593 -0.22543031 -0.97423631 0.0019130117
0.37435797 0.89299852 1.0748348 -0.0034920543 -0.22871259 -0.97348773 0.0019035183
0.38603005 0.89565361 1.0751096 0.0010257472 -0.22809057 -0.97363937 0.0018470422
0.39345512 0.89671338 1.0724475 0.0027213469 -0.2290487 -0.9734112 0.0016963722
0.4037711 0.89840668 1.0713593 0.0084936805 -0.23008376 -0.97313374 0.0017901981
0.41565967 0.89729548 1.0720735 0.014245511 -0.23285031 -0.97240824 0.0017626707
0.4254162 0.89520925 1.073414 0.017431982 -0.2357958 -0.97164625 0.0018464789
0.43459338 0.89544332 1.0732638 0.019992316 -0.23672582 -0.97137082 0.0017596799
0.44499812 0.8956973 1.079044 0.020995233 -0.24208234 -0.97002858 0.0020803127
0.45509881 0.89580357 1.0789757 0.022716634 -0.24525943 -0.96919131 0.0019970573
0.46480373 0.89507002 1.0759506 0.022333583 -0.24715288 -0.96871907 0.0018997833
0.47483161 0.89373374 1.0743623 0.018142059 -0.24753064 -0.96871024 0.0019934203
0.48478261 0.89441139 1.0757098 0.016738381 -0.24876997 -0.96841794 0.0019427328
0.49448264 0.89402783 1.0756593 0.015348437 -0.24947785 -0.96825886 0.0019436069
0.50424361 0.89301872 1.0748218 0.012463366 -0.24996832 -0.9681738 0.0019507812
0.5149067 0.89429682 1.0759816 0.006493845 -0.24844871 -0.96862328 0.0019526408
0.52548707 0.89429682 1.0759816 -0.00064448098 -0.24590532 -0.96929359 0.0016886691
0.5347262 0.8946659 1.0742207 -0.0052091414 -0.24496441 -0.96951813 0.0013854058
0.54423237 0.89433199 1.0739778 -0.0032707087 -0.24529332 -0.96944338 0.0015555565
0.5553059 0.89497936 1.0739113 -0.0012634865 -0.24693865 -0.96903032 0.0015283698
0.56507421 0.89494926 1.0735809 -0.00040690418 -0.24823412 -0.96869999 0.0015992102
0.5759353 0.89433205 1.0739777 -0.0028631175 -0.24962582 -0.96833807 0.0019518629
0.58518201 0.89322078 1.074692 -0.0041139806 -0.25296268 -0.96746725 0.0021885897
0.5944286 0.89433199 1.0739777 -0.00040699443 -0.25044245 -0.96813136 0.0027359873
0.6049962 0.89433211 1.0739778 0.0017768062 -0.25401282 -0.96719927 0.0030546798
0.61490333 0.89340591 1.0745729 0.0029281091 -0.25742659 -0.96629345 0.0032249093
0.62518114 0.8947342 1.0760968 0.004977427 -0.26084632 -0.9653675 0.00353328
0.63475978 0.89431691 1.0748366 0.0094528645 -0.26482049 -0.9642514 0.0040091267
0.64483339 0.89520925 1.0734138 0.014270351 -0.2645781 -0.96425861 0.0045974762
0.65411168 0.89524132 1.0733936 0.01732417 -0.26515388 -0.96405047 0.0048465948
-0.03049143 0.90424758 1.0735489 0.018874295 -0.24683636 -0.96887338 0.0015031379
-0.026514288 0.90536284 1.0728323 0.01841075 -0.24733058 -0.9687562 0.0016115125
0.0066285725 0.90491676 1.0731189 0.062286396 -0.24282923 -0.96806735 0.0086892834
0.016173717 0.90447074 1.0734056 0.058758378 -0.23936322 -0.96915054 0.0094102379
0.023420956 0.90684986 1.0718765 0.054960977 -0.23823354 -0.96965152 0.0099411923
0.08920572 0.90814531 1.0781763 -0.0060179066 -0.21235232 -0.97717464 0.013229216
0.095818035 0.90510476 1.0740954 -0.012712397 -0.21195859 -0.97719598 0.012736476
0.12859428 0.90647811 1.0721154 -0.014814667 -0.20754847 -0.97811258 0.011595225
0.13522288 0.90647811 1.0721154 -0.015444537 -0.20716323 -0.97818446 0.011498044
0.14627048 0.90610641 1.0723543 -0.016131436 -0.20855235 -0.97787815 0.011441881
0.15435104 0.90568149 1.0726274 -0.016915627 -0.21165647 -0.97719771 0.010987571
0.16041143 0.90759337 1.0713987 -0.013565734 -0.21254361 -0.97705746 0.010561939
0.20619543 0.90569729 1.0740438 0.054179449 -0.20725539 -0.97678548 0.0013929798
0.21541543 0.90630734 1.0772179 0.052643292 -0.20843284 -0.97661889 0.0012093931
0.22515546 0.90524787 1.0771854 0.049187437 -0.20845464 -0.97679436 0.0012190633
0.23534808 0.90531099 1.0761076 0.043528523 -0.20866756 -0.97701746 0.0012124627
0.24530129 0.90480506 1.0751358 0.035715096 -0.20748062 -0.97758698 0.0012615473
0.25453717 0.90424758 1.0735488 0.029613424 -0.20706591 -0.97787875 0.0013746741
0.26514283 0.90424764 1.0735489 0.023004808 -0.20653452 -0.97816879 0.0015826405
0.27528381 0.90396869 1.0749168 0.011393745 -0.20656283 -0.97836703 0.0015501266
0.2852343 0.90569496 1.076898 0.0030925062 -0.20696293 -0.9783439 0.0014583482
0.29515433 0.90573084 1.0773506 -0.0049445871 -0.20742488 -0.97823846 0.0012961619
0.30446768 0.90433967 1.0746785 -0.012296781 -0.20674123 -0.97831839 0.0014333158
0.31465146 0.90573084 1.0773506 -0.015348619 -0.2065817 -0.97830904 0.0014943865
0.32446602 0.90510726 1.0762383 -0.016084773 -0.20836672 -0.97791851 0.0014586715
0.33434519 0.90402466 1.0736922 -0.017772017 -0.21157931 -0.97719926 0.0014097118
0.34468573 0.9042477 1.0735488 -0.020335045 -0.21527156 -0.97634244 0.001406042
0.35424525 0.90465218 1.0745858 -0.013500866 -0.21871297 -0.97569585 0.0016316578
0.36517233 0.90463263 1.0760447 -0.0071296482 -0.22185846 -0.97505283 0.0017644606
0.37480628 0.90374577 1.0745847 -0.0052639949 -0.22373998 -0.97463465 0.001357243
0.38423619 0.90406179 1.0736684 -0.0031658805 -0.22748227 -0.97377706 0.0015667686
0.39417905 0.9068498 1.0718765 0.00052742945 -0.22867379 -0.97350293 0.0016809696
0.40964574 0.90759337 1.0713987 0.0085608857 -0.23176129 -0.97273499 0.0017626371
0.42437586 0.90610629 1.0723543 0.015075537 -0.23397094 -0.97212666 0.0016665098
0.44483274 0.90599692 1.0765004 0.018892754 -0.23989902 -0.97061402 0.0016136783
0.45535433 0.90690792 1.0773865 0.020157833 -0.24236187 -0.96997654 0.0015440616
0.4642545 0.90429044 1.07407 0.020050138 -0.24403405 -0.96955931 0.001477614
0.47460577 0.9048053 1.0731906 0.017349152 -0.24426591 -0.96955311 0.0016154873
0.48464334 0.90392911 1.0737537 0.016824873 -0.24348661 -0.96975833 0.0016385731
0.49584576 0.90561324 1.0772102 0.014311433 -0.24319157 -0.96987271 0.0016629255
0.50511849 0.90510815 1.0762378 0.010853201 -0.24334361 -0.96987939 0.0016570917
0.51493001 0.90410799 1.0754217 0.006241275 -0.24313462 -0.96997237 0.0016986659
0.52498287 0.90313244 1.0742656 0.00086537527 -0.24241491 -0.97017235 0.0015975526
0.5349257 0.9048053 1.0731906 -0.005240717 -0.2423761 -0.97016823 0.0011725797
0.54525816 0.90489805 1.0743196 -0.0052913511 -0.24493822 -0.96952426 0.0012837212
0.55482674 0.90523881 1.0744969 -0.0043047806 -0.24662074 -0.9691025 0.0012449024
0.56608003 0.90631878 1.0722179 -0.00068983872 -0.24819158 -0.96871078 0.0015716238
0.57536006 0.90536284 1.0728321 -0.0039846469 -0.25065345 -0.96806866 0.0016457366
0.58623087 0.9044708 1.0734055 -0.002380234 -0.25084478 -0.96802443 0.0027086739
0.59524578 0.9053629 1.0728322 -0.0033230851 -0.25170165 -0.96779919 0.0029642622
0.6045258 0.90536302 1.0728322 -0.0038283898 -0.25286588 -0.96749371 0.003061851
0.61551023 0.90472561 1.0732417 -0.0019142271 -0.25419155 -0.96715194 0.003198955
0.62520975 0.90329951 1.0748714 -0.00024120326 -0.25598541 -0.96668053 0.0034331942
0.63479435 0.90500695 1.0750061 0.0014119471 -0.25816843 -0.9660989 0.0037511464
0.64326602 0.90585858 1.0725136 0.0042578867 -0.25851542 -0.96599776 0.0037282242
0.65523893 0.90647584 1.0749699 0.0047338526 -0.26090509 -0.96535283 0.0041100974
0.66172004 0.90702522 1.0788962 0.0039466009 -0.26088411 -0.96536201 0.004147354
0.087082461 0.91670913 1.0757294 0.0019526494 -0.21745746 -0.97606784 0.01370329
0.091868579 0.91486561 1.0738573 -0.0051404876 -0.21369317 -0.97688735 0.013335916
0.20770288 0.91486573 1.0738574 0.053999454 -0.21438363 -0.97525573 0.0012444841
0.21569143 0.91486579 1.0738574 0.052711967 -0.21384186 -0.97544509 0.0013001263
0.22501145 0.91486573 1.0738575 0.048466451 -0.21410565 -0.9756074 0.0013475311
0.23433146 0.91486579 1.0738574 0.043740597 -0.21468109 -0.97570425 0.0010497398
0.24441226 0.91518581 1.0736518 0.037217267 -0.21482114 -0.97594404 0.00111927
0.25607812 0.91673237 1.0726576 0.029313939 -0.21431796 -0.97632396 0.0014022753
0.26229149 0.91598576 1.0731375 0.024934914 -0.21374749 -0.97657061 0.0015459815
0.27584779 0.91517121 1.0736611 0.011221468 -0.21386518 -0.97679877 0.0016598139
0.28483701 0.91464174 1.0740016 0.0044874242 -0.21359909 -0.97691113 0.0015016231
0.29557717 0.91486579 1.0738573 -0.0056441459 -0.21346299 -0.97693491 0.0011886992
0.30463088 0.91553766 1.0734255 -0.011250286 -0.2135711 -0.97686267 0.0012438757
0.31421718 0.91486579 1.0738574 -0.01445515 -0.21237619 -0.97708106 0.0012608721
0.32486859 0.91486573 1.0738575 -0.01823695 -0.21266696 -0.97695452 0.0012401654
0.3352128 0.91564113 1.0733591 -0.021997061 -0.21576524 -0.97619748 0.0011396328
0.34484005 0.91598576 1.0731376 -0.023899151 -0.21742085 -0.97578532 0.0011538679
0.35495886 0.9162097 1.0729936 -0.018479779 -0.22200489 -0.97487038 0.0013232959
0.36481145 0.91486585 1.0738575 -0.010615287 -0.22518936 -0.97425717 0.0016653804
0.37635052 0.91486573 1.0738575 -0.0072421902 -0.2281141 -0.97360742 0.0013954728
0.38454083 0.91517121 1.0736611 -0.0057879291 -0.22995701 -0.97318351 0.0015979906
0.39330405 0.9162097 1.0729936 -0.0024774629 -0.23167235 -0.97279078 0.0015673384
0.40475431 0.91822588 1.071698 0.0048405454 -0.23479296 -0.97203338 0.0014248
0.41141143 0.91822588 1.071698 0.0075294762 -0.23612528 -0.97169346 0.0016419514
0.44602865 0.91486573 1.0738575 0.018078733 -0.2415415 -0.97022212 0.0016060296
0.45504144 0.91409028 1.0743558 0.018730646 -0.24237303 -0.97000235 0.001457247
0.46546751 0.91464168 1.0740014 0.020172196 -0.24434388 -0.96947885 0.0014045964
0.47565293 0.91626567 1.0729576 0.01924132 -0.24406831 -0.96956718 0.0013987995
0.48433277 0.91564125 1.073359 0.017011341 -0.2434839 -0.96975571 0.0014090349
0.49435955 0.91463345 1.0746012 0.014386966 -0.24389054 -0.96969604 0.0014423856
0.5052458 0.91570973 1.0768813 0.01138603 -0.24543484 -0.96934623 0.0014459542
0.51532954 0.91561532 1.0757532 0.0072590807 -0.24487987 -0.96952623 0.0014733148
0.52458292 0.9143858 1.0741659 0.0019764411 -0.24378517 -0.96982718 0.0014421943
0.53492707 0.91564125 1.0733591 -0.0069085518 -0.24417473 -0.96970665 0.0011775822
0.5458858 0.91486585 1.0738574 -0.0074730492 -0.24537642 -0.96939909 0.0010609501
0.55520576 0.91374558 1.0745772 -0.0041693044 -0.24669681 -0.96908379 0.001278053
0.56452572 0.91822588 1.071698 -0.0061666844 -0.25036982 -0.96813065 0.0013981301
0.57517713 0.91598564 1.0731375 -0.0035066532 -0.25304994 -0.96744686 0.0018149768
0.58529603 0.91553777 1.0734255 -0.0012544872 -0.25265062 -0.96755672 0.0025822362
0.59481573 0.91570562 1.0733175 -0.0040813363 -0.25266165 -0.96754605 0.0027192251
0.60393602 0.91553766 1.0734257 -0.0052856933 -0.25334159 -0.9673624 0.0029629655
0.61458749 0.91643375 1.0728496 -0.0035215085 -0.25307065 -0.96744138 0.0031934073
0.62603784 0.91508985 1.0737135 -0.0012169225 -0.25288597 -0.96749532 0.0035098924
0.63509148 0.91486573 1.0738575 -0.0015108265 -0.2536546 -0.96729368 0.0036466166
0.64404839 0.91618937 1.0730066 -0.0012161807 -0.25510675 -0.96691209 0.0035908627
0.65494919 0.91660935 1.0743217 0.0037190295 -0.25745863 -0.96628213 0.0039132885
0.66277719 0.91841716 1.0787071 0.00092305255 -0.25671285 -0.96648729 0.0043132389
0.086044095 0.92360926 1.0733327 0.0044794152 -0.2186777 -0.97578686 0.014371995
0.091868579 0.92046601 1.0702583 -0.00048855488 -0.216803 -0.97621518 0.013850635
0.20770288 0.92046601 1.0702583 0.054219048 -0.21735732 -0.97458506 0.0014767197
0.21436003 0.92046607 1.0702584 0.052720066 -0.21684851 -0.97478068 0.0013941795
0.22597715 0.92570215 1.0740254 0.047326438 -0.22077775 -0.97417527 0.0010542909
0.23349431 0.9235661 1.0718319 0.0433622 -0.22037128 -0.97445178 0.0011845328
0.24498288 0.92046601 1.0702583 0.036792532 -0.2182018 -0.97520989 0.0011791583
0.25563431 0.92046601 1.0702583 0.029817853 -0.21767427 -0.97556585 0.0014290207
0.26457003 0.92257845 1.0706836 0.022792505 -0.2192671 -0.9753986 0.0014507619
0.27596825 0.9246605 1.0715249 0.0095103858 -0.22188202 -0.97502714 0.0014417307
0.28542811 0.92569351 1.0733826 0.0025181803 -0.22220969 -0.97499561 0.0013002401
0.29464 0.92534941 1.0718745 -0.0047519198 -0.22184338 -0.97507077 0.0011184535
0.30488083 0.92529458 1.0712306 -0.011882173 -0.22175498 -0.97503 0.00096467865
0.31489146 0.92469096 1.0711091 -0.014433189 -0.22171186 -0.97500533 0.0010609454
0.32541487 0.92215598 1.0705985 -0.019004667 -0.2194359 -0.97544175 0.0011118846
0.3344709 0.92215598 1.0705985 -0.021938756 -0.22170871 -0.97486615 0.0010422842
0.34534118 0.92570609 1.0718832 -0.026762174 -0.22290955 -0.97447169 0.0011158508
0.35426977 0.92486107 1.0717131 -0.021938287 -0.22591136 -0.97390079 0.0012259375
0.36481148 0.92046601 1.0702583 -0.013876407 -0.22772469 -0.97362661 0.0014762938
0.37546289 0.92046601 1.0702583 -0.010311753 -0.23149863 -0.97278059 0.0013163562
0.38478288 0.92046607 1.0702584 -0.0060224803 -0.23299713 -0.97245878 0.0013533261
0.39410287 0.92046601 1.0702583 -0.0026892491 -0.2343891 -0.97213912 0.0014980133
0.40475431 0.92046601 1.0702583 0.0040082945 -0.23538853 -0.97189313 0.0014780792
0.41540572 0.92046601 1.0702583 0.0098401094 -0.23720123 -0.97141081 0.0016570794
0.44635844 0.9246518 1.0716438 0.016849363 -0.24282305 -0.96992427 0.00150795
0.4551996 0.9258433 1.0733862 0.018046191 -0.24388792 -0.96963555 0.0014442875
0.46560034 0.92524284 1.0739009 0.019686406 -0.24408048 -0.96955514 0.0012215278
0.47489718 0.92534935 1.0718746 0.016641203 -0.24550533 -0.96925241 0.0012695085
0.48389718 0.92522973 1.0717354 0.016498612 -0.24608552 -0.96910769 0.0013370507
0.49545249 0.92574346 1.0727019 0.013819111 -0.24718776 -0.96886903 0.0013921541
0.50544 0.9255414 1.0741289 0.01068748 -0.24803244 -0.96869278 0.001497805
0.51504052 0.92515099 1.073831 0.0070114131 -0.24905215 -0.96846473 0.001509482
0.52245718 0.92508602 1.0715684 0.0029003215 -0.24954295 -0.96835941 0.0013654424
0.53523433 0.92046601 1.0702583 -0.0066033173 -0.24841876 -0.96863025 0.0010414718
0.54648918 0.92486107 1.0717131 -0.0084968358 -0.24989903 -0.9682346 0.0010489126
0.55544919 0.92599136 1.0738395 -0.0077714049 -0.25167972 -0.9677794 0.001148334
0.56396574 0.92632014 1.0736282 -0.0083830263 -0.25448325 -0.9670409 0.0013421642
0.574902 0.92571241 1.0729216 -0.0045191222 -0.25562009 -0.96676677 0.0018411262
0.58531106 0.92545915 1.0731626 -0.00085962488 -0.2566734 -0.96649778 0.0023853732
0.59476113 0.92621624 1.0736951 -0.00344012 -0.25639415 -0.96656621 0.002522402
0.60438859 0.92602354 1.073819 -0.0042026932 -0.25700429 -0.96640104 0.0026639579
0.61309719 0.92300367 1.0721934 -0.0017504401 -0.25625437 -0.96660775 0.0028862804
0.62577146 0.92046601 1.0702583 -0.00061846396 -0.25398833 -0.96720707 0.003212672
0.63443577 0.92257845 1.0706836 -0.0022368242 -0.25557852 -0.96678573 0.0033981118
0.64441144 0.92046601 1.0702583 -0.00072253466 -0.25549856 -0.96680921 0.0035981843
0.65373152 0.92046607 1.0702584 0.0033839031 -0.25525802 -0.96686709 0.0038290299
0.086092062 0.93690234 1.0739597 0.009012728 -0.21980979 -0.97550112 0.015787069
0.092262857 0.9311657 1.0705141 0.00072066387 -0.21801138 -0.97594595 0.015288353
0.20859429 0.9311657 1.0705141 0.054540645 -0.22079138 -0.97379488 0.0013553847
0.21528 0.9311657 1.0705141 0.052350339 -0.22204922 -0.97362906 0.0012232707
0.22865143 0.9311657 1.0705141 0.046211556 -0.22121383 -0.9741298 0.0011961979
0.23667429 0.9311657 1.0705141 0.041229248 -0.22103089 -0.97439492 0.0011666968
0.25405717 0.9311657 1.0705141 0.031490929 -0.22242744 -0.97444052 0.0014236168
0.26208001 0.9311657 1.0705141 0.023055231 -0.22283125 -0.9745844 0.0016576333
0.27545142 0.9311657 1.0705141 0.011175466 -0.22508124 -0.97427589 0.0014020705
0.28481144 0.9311657 1.0705141 0.0030756891 -0.22534858 -0.97427338 0.0013260635
0.29417142 0.9311657 1.0705141 -0.0047998973 -0.22631784 -0.97404164 0.0011992151
0.30486858 0.9311657 1.0705141 -0.011527681 -0.22710674 -0.97380161 0.0010652777
0.31556571 0.9311657 1.0705141 -0.014095616 -0.22638333 -0.97393632 0.0011321435
0.3276 0.9311657 1.0705141 -0.020214906 -0.22556731 -0.97401786 0.0010022765
0.33428574 0.9311657 1.0705141 -0.02258525 -0.22575164 -0.97392303 0.0010034479
0.3454743 0.93399847 1.0710711 -0.026945086 -0.22734912 -0.97344047 0.0010170406
0.35464114 0.93286532 1.0708483 -0.023529114 -0.22801208 -0.97337401 0.0013373457
0.36236572 0.9311657 1.0705141 -0.017668964 -0.23041712 -0.97293156 0.0015259273
0.41184002 0.9311657 1.0705141 0.0055277133 -0.24001461 -0.97075349 0.0014376686
0.44660574 0.9311657 1.0705141 0.015474991 -0.24471691 -0.96947104 0.0014019285
0.45462859 0.9311657 1.0705141 0.017694479 -0.24437127 -0.96952033 0.001429733
0.46532571 0.9311657 1.0705141 0.017912239 -0.24457765 -0.96946418 0.0012832897
0.47468576 0.9311657 1.0705141 0.01657836 -0.24601868 -0.9691233 0.0012544544
0.48404574 0.9311657 1.0705141 0.015724681 -0.24707611 -0.96886843 0.0012295985
0.49474287 0.9311657 1.0705141 0.012616954 -0.24847594 -0.96855587 0.0013867521
0.50544 0.9311657 1.0705141 0.0089955674 -0.25084397 -0.96798569 0.0014576792
0.51480001 0.9311657 1.0705141 0.0062813684 -0.25194159 -0.967722 0.0013848394
0.52014858 0.9311657 1.0705141 0.0036567508 -0.25231022 -0.96763951 0.0013197981
0.53485715 0.9311657 1.0705141 -0.0066519673 -0.25312012 -0.96741205 0.0010466169
0.54555428 0.9311657 1.0705141 -0.0085376296 -0.25362223 -0.96726573 0.0011025132
0.5549143 0.9311657 1.0705141 -0.0097820591 -0.25467721 -0.96697664 0.0011336055
0.56427431 0.9311657 1.0705141 -0.010638014 -0.25629815 -0.96653926 0.0012930238
0.57497144 0.9311657 1.0705141 -0.0023916592 -0.25825009 -0.96607512 0.0021665222
0.58566856 0.9311657 1.0705141 -0.0018883096 -0.26022887 -0.96554512 0.0025026037
0.59502864 0.9311657 1.0705141 -0.0026488274 -0.25987327 -0.96563905 0.0025878605
0.60438859 0.9311657 1.0705141 -0.0025038642 -0.25895053 -0.96588731 0.0025638926
0.61508572 0.9311657 1.0705141 0.0024781108 -0.25777802 -0.96620101 0.0028238564
0.079509534 0.94753075 1.0730728 0.018902108 -0.23551197 -0.97168761 0.015658094
0.085110888 0.94465041 1.0715277 0.011406688 -0.22912949 -0.97332913 0.015689136
0.2538 0.9419232 1.070733 0.02926269 -0.2267703 -0.97350854 0.0015416733
0.66990006 0.94927156 1.0790863 0.012802353 -0.25430161 -0.96704024 0.0051965844
0.67260671 0.94927156 1.0790863 0.015622967 -0.25437519 -0.96697944 0.0053498559
0.079846673 0.957241 1.0739646 0.02127634 -0.24294442 -0.96980685 0.015825085
0.085918427 0.95417017 1.0711833 0.014508033 -0.23826659 -0.97109139 0.015824789
0.090290479 0.95206547 1.0701585 0.0078434143 -0.23678039 -0.97153151 0.015480231
0.078493342 0.96065652 1.0717696 0.023960724 -0.2457753 -0.96903068 0.015285176
0.084940486 0.96585602 1.0755601 0.017829109 -0.24876718 -0.96839917 0.015650894
0.090673342 0.96293348 1.0703063 0.011150456 -0.2449504 -0.96947151 0.01530463
0.082947187 0.97438186 1.077213 0.022128474 -0.25334829 -0.96712196 0.016174233
0.085980006 0.98139822 1.0727041 0.023014847 -0.2472207 -0.96868581 0.014108594
0.086339995 0.99588352 1.070527 0.029736543 -0.23935191 -0.97047734 0.013611755
0.085782543 1.0062106 1.0710225 0.034013197 -0.2356184 -0.97125024 0.01303101
0.084354281 1.0176771 1.0719743 0.041157614 -0.23286857 -0.97163689 0.012636761
0.079148576 1.0253868 1.0741519 0.04808588 -0.23292431 -0.97130531 0.013045776
0.08192572 1.0253868 1.0741519 0.045493331 -0.23326622 -0.97134817 0.012904036
-0.49157524 0.6979903 1.0872322 0.11148002 -0.25174263 -0.96135205 0.0037568505
-0.48576471 0.69701272 1.0878606 0.10591962 -0.25018713 -0.96238637 0.0036846448
-0.4754912 0.69628972 1.0883253 0.09999942 -0.24947333 -0.96320462 0.0031364739
-0.49160993 0.70533425 1.086758 0.12094864 -0.25058246 -0.96051019 0.0035481227
-0.48421332 0.70640683 1.0877669 0.11401933 -0.25126532 -0.96117914 0.0033626887
-0.47433147 0.70640677 1.0877669 0.10634348 -0.25303012 -0.96159595 0.0029568055
-0.46815526 0.70640683 1.0877666 0.10480087 -0.25286075 -0.96180987 0.0027691131
-0.49349254 0.71460128 1.0844816 0.11754805 -0.25142184 -0.96071291 0.0040684263
-0.48608002 0.71538895 1.0879377 0.10933492 -0.25362483 -0.96110374 0.0035224236
-0.47573429 0.71549916 1.0874099 0.10238817 -0.25312918 -0.96199912 0.0032417066
-0.4648712 0.71534228 1.0875435 0.10170376 -0.25391445 -0.96186477 0.002909926
-0.49464041 0.72497493 1.0847492 0.097513251 -0.24712618 -0.96406418 0.0054657618
-0.48545715 0.72546649 1.087405 0.09627524 -0.25159836 -0.96303129 0.0045715203
-0.47585469 0.72591519 1.0871167 0.096878357 -0.25439367 -0.96223617 0.0037157447
-0.46562403 0.72525704 1.0875396 0.094281398 -0.25719532 -0.96174926 0.0031611749
-0.45558286 0.72546649 1.087405 0.096204273 -0.25907427 -0.96105427 0.0025787095
-0.44935906 0.72546643 1.087405 0.095459767 -0.25787073 -0.96145213 0.0025929199
-0.39832383 0.72232497 1.0894239 0.091253221 -0.25072837 -0.96374691 0.0017450675
-0.5035581 0.73559988 1.086836 0.10311303 -0.24639574 -0.96366853 0.0062644626
-0.49355069 0.73380625 1.0827059 0.09278556 -0.25085026 -0.96356887 0.0055091646
-0.48545715 0.73384374 1.0820212 0.088478155 -0.25384894 -0.96318859 0.0050410251
-0.47520748 0.73470211 1.0827905 0.085765675 -0.25798687 -0.9623341 0.0043175365
-0.46564382 0.73466706 1.0854545 0.08622659 -0.25865772 -0.96211284 0.0037800386
-0.45514607 0.7346465 1.0858278 0.096315652 -0.26071575 -0.96059906 0.0027589297
-0.44492799 0.73209703 1.0883443 0.097393058 -0.2580446 -0.96121156 0.0024474654
-0.43533412 0.73307717 1.0884575 0.099543609 -0.25841066 -0.9608928 0.0021687159
-0.42416531 0.73430616 1.0876675 0.097905234 -0.25985163 -0.96067256 0.002200125
-0.41409221 0.73181576 1.0892681 0.096281253 -0.25816989 -0.96128988 0.0020411506
-0.40859431 0.73244643 1.0888627 0.095084839 -0.25868228 -0.96127123 0.0019402811
-0.39484954 0.73139524 1.0895382 0.087587826 -0.25618008 -0.96265268 0.001764586
-0.38735241 0.73139524 1.0895382 0.082802951 -0.25672016 -0.96293217 0.0017566183
-0.48294094 0.74558598 1.0804183 0.082780592 -0.25816253 -0.96254843 0.0049156472
-0.47464663 0.74571043 1.0839046 0.085097514 -0.25988987 -0.96188134 0.0043074582
-0.46408579 0.74578941 1.0862311 0.090164796 -0.25878254 -0.9617182 0.0038737368
-0.45405141 0.74520314 1.0866078 0.091800697 -0.25850841 -0.96163714 0.0033417291
-0.44417167 0.74466121 1.0872689 0.093139835 -0.25881958 -0.96142465 0.0028451639
-0.43398291 0.74473435 1.0869092 0.095633477 -0.26383954 -0.95981401 0.0021751947
-0.42376971 0.74465448 1.0863001 0.094266474 -0.26686618 -0.95911229 0.002092784
-0.41391429 0.74473417 1.0869093 0.09515436 -0.26881155 -0.95848107 0.0019578713
-0.40387997 0.74473435 1.0869093 0.093417719 -0.27022445 -0.95825458 0.0022193412
-0.39384577 0.74473435 1.0869091 0.087675579 -0.27082551 -0.9586274 0.0020805271
-0.38477626 0.74469298 1.0876787 0.081103295 -0.27004862 -0.95942479 0.0016647194
-0.37448668 0.74509674 1.0896479 0.079771586 -0.26990125 -0.95957798 0.0018602214
-0.36506954 0.74575156 1.0896518 0.082211278 -0.27140251 -0.95894831 0.0017220321
-0.35603714 0.74784678 1.0896639 0.0825973 -0.27398908 -0.95817935 0.0019721752
-0.34497905 0.74967998 1.0896744 0.086006306 -0.27639163 -0.95718896 0.0021844802
-0.48039144 0.75528598 1.0801281 0.083010972 -0.262896 -0.96124649 0.0051899864
-0.47377786 0.75336754 1.0813609 0.082819365 -0.26157111 -0.96162444 0.0047666999
-0.46423143 0.75341457 1.081826 0.08942911 -0.26067212 -0.96127647 0.0045061144
-0.45577526 0.75603503 1.0855901 0.091016971 -0.26247329 -0.96063709 0.0042947824
-0.44547743 0.75548983 1.0854834 0.088216275 -0.2651912 -0.96015185 0.0039153332
-0.43453526 0.75413013 1.0828521 0.087129243 -0.26740536 -0.95963687 0.0035973631
-0.42394859 0.75317568 1.0814842 0.091752507 -0.27154422 -0.95804244 0.0031288711
-0.41391429 0.75317574 1.0814842 0.09155868 -0.27421138 -0.95730084 0.0026075556
-0.40388006 0.75317568 1.0814844 0.092514105 -0.27739441 -0.95629156 0.0022974748
-0.39421833 0.7538926 1.0825095 0.088775694 -0.27887931 -0.95621401 0.0024813141
-0.3844898 0.75461406 1.0848053 0.082377285 -0.27883622 -0.95679903 0.0022498672
-0.37519619 0.75497597 1.0862709 0.079101421 -0.27831495 -0.95722711 0.0020257316
-0.36512381 0.75497591 1.0862708 0.079768531 -0.27855527 -0.95710188 0.0020617018
-0.35559103 0.75467318 1.0864655 0.081595339 -0.27851012 -0.95696098 0.002357224
-0.34655285 0.75365186 1.0871218 0.083806477 -0.27982068 -0.9563874 0.0025568919
-0.47717908 0.76344931 1.0808253 0.083679795 -0.26311019 -0.9611299 0.0051250942
-0.46490332 0.76318455 1.0809954 0.087468877 -0.26265135 -0.96091807 0.0046538329
-0.45577526 0.76291978 1.0811658 0.087421656 -0.26401639 -0.96054816 0.004302606
-0.44587097 0.76267934 1.0819147 0.087966308 -0.26528737 -0.96014816 0.0040647225
-0.43633336 0.76321363 1.0822736 0.085095413 -0.26739931 -0.95982099 0.003929073
-0.42555809 0.76344931 1.0808252 0.087476932 -0.27096146 -0.95860714 0.0031853344
-0.41498214 0.76281375 1.0812339 0.087430537 -0.274048 -0.95773351 0.003029763
-0.40504816 0.76422971 1.0829173 0.088681571 -0.27817798 -0.95642698 0.0026262233
-0.3954854 0.7631439 1.0829668 0.087652758 -0.28069642 -0.95578581 0.0022921863
-0.38504979 0.76308692 1.0821556 0.082523465 -0.28102577 -0.95614558 0.0024067787
-0.37463683 0.76296842 1.0823232 0.079142943 -0.28129622 -0.95635182 0.0023221353
-0.36449644 0.76372397 1.083392 0.080258504 -0.28140822 -0.95622593 0.0022300293
-0.35441318 0.76367539 1.0865155 0.080317579 -0.28140825 -0.95622092 0.0022393877
-0.34367031 0.76372236 1.087782 0.086866193 -0.28070641 -0.95585471 0.0023204642
-0.33642671 0.76478624 1.0870982 0.093142413 -0.28101772 -0.955172 0.0023365845
-0.29848385 0.76159436 1.0891497 0.10795967 -0.27819964 -0.9544369 0.0029916072
-0.4629029 0.7722342 1.0823119 0.085054711 -0.26479989 -0.96054506 0.0047287857
-0.45465511 0.77447587 1.0817202 0.084677368 -0.26623973 -0.96018034 0.0043146089
-0.44425768 0.77382439 1.0836673 0.085912846 -0.26738986 -0.95975083 0.0039937035
-0.43280509 0.77400821 1.0854173 0.082570449 -0.26911056 -0.95956326 0.0038583793
-0.42587799 0.77412558 1.0833251 0.081503801 -0.27034482 -0.95930743 0.0037175482
-0.41385823 0.7727071 1.0820079 0.084603108 -0.27435693 -0.95789909 0.0031197448
-0.4051207 0.77429944 1.0839562 0.086156867 -0.27676421 -0.95706767 0.0026833462
-0.39590573 0.77584732 1.0851904 0.085499987 -0.27799332 -0.95677036 0.0026416997
-0.38453653 0.77367586 1.0830835 0.082222603 -0.28091341 -0.95620453 0.002394652
-0.37542906 0.77441686 1.0853667 0.079095885 -0.28217977 -0.95609534 0.00245652
-0.36516258 0.77275121 1.0859419 0.08048106 -0.28319421 -0.95567977 0.0022901227
-0.3550435 0.77193773 1.0884459 0.081492983 -0.28313646 -0.95561117 0.0021971511
-0.34443161 0.77448452 1.0868092 0.086022362 -0.28184801 -0.95559508 0.0023756917
-0.33557749 0.77528417 1.0862952 0.093176216 -0.28155574 -0.95501024 0.002228715
-0.32753715 0.77086973 1.0891322 0.099579789 -0.280965 -0.95453781 0.0024014127
-0.31230286 0.77086973 1.0891322 0.10546862 -0.28076974 -0.95396268 0.0026484348
-0.30468574 0.77086973 1.0891322 0.10681589 -0.27962118 -0.95415002 0.002852083
-0.2970686 0.77086973 1.0891322 0.10882726 -0.27984911 -0.95385593 0.0026870698
-0.50654 0.78261769 1.0815823 0.093830355 -0.26070768 -0.9608472 0.0079643764
-0.46083716 0.78368568 1.0808959 0.082686722 -0.2658315 -0.96046686 0.0047809361
-0.45448956 0.78297371 1.0813535 0.082314856 -0.26748332 -0.96004009 0.0044187997
-0.44408241 0.78332549 1.0837691 0.083142594 -0.26865357 -0.95964193 0.0040475563
-0.43558922 0.78281939 1.0852734 0.081425242 -0.27001211 -0.95940781 0.0038743042
-0.42782953 0.78154969 1.0822686 0.080925807 -0.27002409 -0.95944673 0.0037345039
-0.40328544 0.78226173 1.0818111 0.085283846 -0.27615979 -0.95732045 0.0028212725
-0.39609146 0.78261769 1.0815823 0.084620163 -0.27733952 -0.95703822 0.002786261
-0.38457593 0.78475451 1.0836054 0.078555033 -0.28009188 -0.95675373 0.0025564532
-0.37471497 0.78473347 1.0861661 0.077684313 -0.28322843 -0.95590103 0.0024881265
-0.36444572 0.78448123 1.0863283 0.079031333 -0.28448462 -0.95541751 0.002388576
-0.35447627 0.78372449 1.0868145 0.082250245 -0.28395993 -0.95530182 0.0023469776
-0.34532571 0.78301346 1.0842997 0.084784977 -0.2835753 -0.95519453 0.0024513211
-0.33341619 0.78424865 1.0847296 0.094700836 -0.28367946 -0.9542315 0.0024160016
-0.32494289 0.78448129 1.0863281 0.10174746 -0.28262687 -0.95381844 0.002337055
-0.31602284 0.78448123 1.0863283 0.10407533 -0.28155684 -0.95388365 0.0024804673
-0.30728328 0.78574514 1.0876772 0.10613853 -0.28330246 -0.95313925 0.0024837295
-0.29381591 0.78929967 1.087194 0.10622422 -0.28366458 -0.95302194 0.0021363003
-0.2839486 0.78956479 1.0890048 0.10818579 -0.28373575 -0.95278001 0.0023380176
-0.27499527 0.78956479 1.0890048 0.10721747 -0.28469422 -0.95260364 0.0023403917
-0.26517704 0.78806472 1.0847682 0.10544552 -0.28608102 -0.9523859 0.0021675231
-0.25788668 0.78916705 1.0862886 0.10163064 -0.2868385 -0.9525727 0.0022706483
-0.38356003 0.79198521 1.0815057 0.077510931 -0.28012341 -0.95682961 0.0025622565
-0.37464002 0.79198527 1.0815055 0.074945413 -0.28180632 -0.95653981 0.0024023796
-0.36444572 0.79198515 1.0815057 0.078361273 -0.28305581 -0.95589691 0.0021268947
-0.35807431 0.79198521 1.0815057 0.081148967 -0.28388882 -0.95541716 0.0022865764
-0.33309829 0.79177088 1.0816435 0.09638267 -0.28298032 -0.95427066 0.0024035908
-0.32443315 0.79177088 1.0816435 0.099952295 -0.28456444 -0.95343202 0.0023018275
-0.31602287 0.79198527 1.0815057 0.10430566 -0.28404182 -0.95312148 0.0024158196
-0.30466884 0.79405856 1.0847183 0.10565284 -0.28432795 -0.95288777 0.0022835543
-0.29445395 0.79228759 1.0835402 0.10617537 -0.28345999 -0.95308822 0.0023058564
-0.2849429 0.79189581 1.0835443 0.10774136 -0.28392035 -0.95277542 0.0023468712
-0.27517739 0.79191202 1.0831736 0.10790941 -0.28383616 -0.9527815 0.0023709899
-0.26505142 0.79198527 1.0815057 0.1054709 -0.28491125 -0.95273364 0.0022176935
-0.25491318 0.79440659 1.0835158 0.10194902 -0.28675953 -0.95256257 0.0023587323
-0.24601486 0.79866797 1.0872302 0.095404983 -0.2862609 -0.95339006 0.0024396095
-0.23511145 0.79957712 1.0897025 0.088743769 -0.28711796 -0.95377558 0.0022718718
-0.22611812 0.79957712 1.0897025 0.08380419 -0.28757712 -0.95408392 0.0024057641
-0.21584001 0.79957712 1.0897025 0.077416115 -0.28872809 -0.95427608 0.0025862365
-0.20556192 0.79957712 1.0897025 0.069463439 -0.29169357 -0.95398623 0.0027426197
-0.19528383 0.79957712 1.0897025 0.063328631 -0.29309985 -0.95398217 0.0028387159
-0.18500572 0.79957712 1.0897025 0.061117742 -0.29507458 -0.95351744 0.0040207356
-0.17472763 0.79957712 1.0897025 0.062387839 -0.29853609 -0.95235705 0.0070781708
-0.16444954 0.79957712 1.0897025 0.068627685 -0.30449507 -0.95003843 0.011969235
-0.15417144 0.79957712 1.0897025 0.078178622 -0.31051666 -0.94734758 0.017390195
-0.14389333 0.79957712 1.0897025 0.09678711 -0.32333952 -0.94132024 0.027664907
-0.13490002 0.79957712 1.0897025 0.11136782 -0.33502162 -0.93560553 0.033762109
-0.12590668 0.79957712 1.0897025 0.13605043 -0.35531279 -0.92479348 0.042844448
-0.11562858 0.79957712 1.0897025 0.14277898 -0.37658754 -0.91531193 0.047560848
-0.10535048 0.79957712 1.0897025 0.16018592 -0.41113836 -0.89738828 0.059852995
-0.095072389 0.79957712 1.0897025 0.16123547 -0.43540472 -0.88567811 0.067197286
-0.084794298 0.79957712 1.0897025 0.16110761 -0.47522509 -0.86498868 0.074255586
-0.074516192 0.79957712 1.0897025 0.15272811 -0.50696176 -0.84833002 0.076394826
-0.064238101 0.79957712 1.0897025 0.14672665 -0.55567414 -0.81835055 0.083903357
-0.053960007 0.79957712 1.0897025 0.12065169 -0.61970407 -0.77550626 0.087335594
-0.044966668 0.79957712 1.0897025 0.098215729 -0.6511597 -0.75255871 0.084779933
-0.035973337 0.79957712 1.0897025 0.080185287 -0.66648757 -0.74119151 0.081476204
0.056529529 0.79957712 1.0897025 -0.00083637441 -0.71020174 -0.70399773 0.083966941
0.063809842 0.79957712 1.0897025 0.010115398 -0.7131108 -0.70097834 0.083568789
0.071946673 0.79957712 1.0897025 0.0047795591 -0.69970882 -0.71441215 0.082564898
0.10792001 0.79957712 1.0897025 -0.022769533 -0.71934754 -0.69427723 0.087223165
0.11562859 0.79957712 1.0897025 -0.025905298 -0.74726599 -0.66401994 0.08620327
0.12590668 0.79957712 1.0897025 -0.02016844 -0.76744324 -0.64079964 0.086341009
0.1349 0.79957712 1.0897025 0.0039026004 -0.76186991 -0.64771843 0.083233185
0.14389335 0.79957712 1.0897025 0.011392144 -0.76944637 -0.63860977 0.084808797
0.15417144 0.79957712 1.0897025 0.008733632 -0.77110201 -0.63665164 0.083855562
0.16444954 0.79957712 1.0897025 0.0094445515 -0.76691222 -0.64168257 0.083041705
0.17472763 0.79957712 1.0897025 0.017618017 -0.77178288 -0.63564205 0.081869476
0.18372098 0.79957712 1.0897025 0.023446672 -0.76682866 -0.64142329 0.083871529
-0.30313432 0.80140084 1.0813982 0.10565015 -0.28233495 -0.95348048 0.0024148279
-0.2949484 0.80204642 1.0809833 0.10699537 -0.28253445 -0.95327139 0.0022378596
-0.28522766 0.80247682 1.0807068 0.10900582 -0.28302979 -0.9528966 0.0023120621
-0.25318572 0.80432492 1.0825757 0.096688807 -0.28530261 -0.95354789 0.0024860592
-0.24443781 0.80454028 1.085254 0.094651587 -0.2864438 -0.95341021 0.002513384
-0.23511146 0.80498117 1.0862296 0.089007713 -0.28664184 -0.9538942 0.0024265305
-0.2261181 0.80498111 1.0862294 0.083899297 -0.28696841 -0.95425886 0.0025300877
-0.21584004 0.80498117 1.0862296 0.077164941 -0.28706187 -0.95479894 0.0027919235
-0.20556192 0.80498123 1.0862296 0.069788367 -0.28977647 -0.95454657 0.0028806368
-0.19528382 0.80498123 1.0862293 0.060953658 -0.29099703 -0.95478028 0.0027710763
-0.18500571 0.80498129 1.0862296 0.054810286 -0.29391143 -0.95425993 0.0034571276
-0.17472763 0.80498123 1.0862294 0.057369012 -0.29832128 -0.95273983 0.0058464697
-0.16444953 0.80498117 1.0862294 0.065816 -0.30523226 -0.95000076 0.012063755
-0.15442839 0.80476505 1.0863684 0.075048812 -0.31229869 -0.94701487 0.017213717
-0.14415431 0.80471516 1.0880214 0.0879981 -0.32354102 -0.94211334 0.024817236
-0.13466641 0.80468649 1.0864189 0.10230312 -0.33705074 -0.93591183 0.031457685
-0.12590668 0.80498117 1.0862296 0.1215494 -0.35291576 -0.92772633 0.037261311
-0.11562858 0.80498123 1.0862296 0.12697397 -0.37467885 -0.91841894 0.045388084
-0.10535049 0.80498117 1.0862296 0.13706994 -0.40056953 -0.90595585 0.051134985
-0.095100567 0.80414939 1.0872593 0.1493891 -0.4325203 -0.88916212 0.061241288
-0.084874056 0.80464733 1.08793 0.14875661 -0.46906722 -0.87054431 0.068744689
-0.074219719 0.8042329 1.0867103 0.13665843 -0.50566489 -0.85183775 0.071414307
-0.064621165 0.80473143 1.0868144 0.12846495 -0.53970534 -0.83199453 0.076553211
-0.054026671 0.8048963 1.0882652 0.10000522 -0.59410077 -0.79814982 0.082827605
-0.044986244 0.8042323 1.0873711 0.090575479 -0.61813605 -0.78083533 0.07995265
-0.035606258 0.80451798 1.0865271 0.07247024 -0.6311993 -0.77222759 0.075321242
-0.025790477 0.80904961 1.0895584 0.035586048 -0.66262078 -0.74810916 0.076611504
-0.018053334 0.80904961 1.0895584 0.029096901 -0.68390864 -0.72898716 0.074735641
-0.0051580956 0.80904961 1.0895584 0.0041719759 -0.70088971 -0.71325743 0.072186172
0.0051580956 0.80904961 1.0895584 -0.0041910107 -0.71376348 -0.70037431 0.07264249
0.015474286 0.80904961 1.0895584 -0.0018372383 -0.70652944 -0.70768124 0.073823616
0.025790477 0.80904961 1.0895584 0.010760164 -0.70146954 -0.71261817 0.076140352
0.046422862 0.80904961 1.0895584 0.003828937 -0.6657874 -0.74613172 0.080769815
0.054160003 0.80904961 1.0895584 0.017377954 -0.66874182 -0.74329156 0.084886812
0.063540325 0.80661267 1.0891433 0.0096204923 -0.66933668 -0.74289691 0.084509902
0.073502861 0.80904961 1.0895584 -0.0009167341 -0.64413023 -0.76491535 0.082693532
0.099293344 0.80904961 1.0895584 -0.019397661 -0.6625998 -0.74872237 0.088091649
0.1070054 0.80552495 1.0872008 -0.021158351 -0.68973327 -0.72375435 0.08647164
0.11537163 0.80476516 1.0863683 -0.032660283 -0.69474095 -0.71851814 0.087395892
0.12590668 0.80390042 1.0869241 -0.015977927 -0.68952209 -0.72408837 0.083666041
0.13489999 0.8039003 1.0869241 -0.00068602985 -0.70955145 -0.70465338 0.082349762
0.1442719 0.80502522 1.0871155 0.0075008455 -0.71491796 -0.69916815 0.082389824
0.15417144 0.80390024 1.0869241 0.011884216 -0.72919089 -0.6842072 0.083717249
0.16444954 0.80390036 1.0869241 0.01022034 -0.72596592 -0.68765479 0.081777215
0.17472763 0.80498117 1.0862296 0.017381819 -0.71447372 -0.69944632 0.079284906
0.18444201 0.8050127 1.0879922 0.024126977 -0.73747897 -0.67493898 0.083913557
0.19471811 0.80904961 1.0895584 0.046451408 -0.70395446 -0.70872444 0.08487539
0.20761335 0.80904961 1.0895584 0.045933478 -0.70316637 -0.70954013 0.085087284
0.21406096 0.80904961 1.0895584 0.063657612 -0.70388442 -0.70745635 0.086597502
0.22437716 0.80904961 1.0895584 0.069184572 -0.69382304 -0.7168144 0.086501725
0.23469335 0.80904961 1.0895584 0.057638206 -0.69999546 -0.71181744 0.08845365
0.24372002 0.80904961 1.0895584 0.052704036 -0.7018348 -0.71038741 0.088231444
0.25274667 0.80904961 1.0895584 0.058121718 -0.6967355 -0.71496958 0.085802175
0.26435241 0.80904961 1.0895584 0.03970585 -0.69596821 -0.71697402 0.088007264
0.32882857 0.80904961 1.0895584 0.0085028615 -0.69609255 -0.71790171 0.085107155
0.33527619 0.80904961 1.0895584 0.0016526212 -0.7006256 -0.7135272 0.085569277
0.34172383 0.80904961 1.0895584 0.014823257 -0.70199591 -0.71202666 0.081719711
0.4152267 0.80904961 1.0895584 0.049879793 -0.71420538 -0.6981566 0.075491212
0.42425334 0.80904961 1.0895584 0.052700024 -0.69903421 -0.71314371 0.074285641
-0.25341082 0.81427658 1.0822369 0.096307814 -0.28166729 -0.95466661 0.0028699955
-0.24415521 0.81454206 1.082371 0.091845468 -0.28294119 -0.95472968 0.0027309833
-0.23478836 0.81519866 1.084235 0.089754574 -0.28457209 -0.95444375 0.0027015812
-0.2248996 0.81516993 1.0862855 0.083356515 -0.28367084 -0.95529181 0.0026991465
-0.2138304 0.81498367 1.0850843 0.073141038 -0.28308168 -0.95630288 0.0029573319
-0.20525412 0.81423664 1.0824425 0.065764628 -0.28397563 -0.95657349 0.0032154652
-0.19553562 0.81482232 1.0826786 0.057189308 -0.28658459 -0.95634651 0.0031807332
-0.18534857 0.81513941 1.0826728 0.051841903 -0.29016826 -0.9555704 0.0032402929
-0.17537363 0.81476963 1.082486 0.052780118 -0.29345089 -0.95451605 0.0048914817
-0.16508727 0.81315231 1.0821668 0.054275814 -0.30042252 -0.95226073 0.0082376292
-0.15416798 0.8147946 1.0837436 0.064332075 -0.31205106 -0.94788474 0.014537976
-0.14480485 0.81418598 1.0871718 0.085568912 -0.32631668 -0.94137949 0.024210982
-0.13416144 0.81477493 1.0864733 0.095944121 -0.34206143 -0.93476665 0.03050369
-0.12493064 0.8156414 1.0833409 0.092789941 -0.35066468 -0.93189287 0.032659564
-0.11589644 0.81551594 1.0831738 0.10425596 -0.37092188 -0.92279339 0.039877303
-0.10569036 0.81626731 1.0841768 0.11155023 -0.3929536 -0.91276717 0.044115592
-0.095748365 0.81395441 1.0868635 0.1346356 -0.4366163 -0.88951641 0.058760736
-0.084871173 0.814484 1.0882273 0.13007013 -0.47907427 -0.86808389 0.068922862
-0.074564822 0.81543088 1.0854574 0.11162703 -0.49390599 -0.86232024 0.065480612
-0.064709768 0.81490552 1.0862904 0.096824162 -0.52380049 -0.84632033 0.07197579
-0.054115504 0.814484 1.0882273 0.083846413 -0.56421924 -0.82135648 0.077865675
-0.044682294 0.81481045 1.0882335 0.066909157 -0.59298503 -0.80242872 0.076582193
-0.036292806 0.81463379 1.0879508 0.062271517 -0.61181509 -0.78854585 0.076337412
-0.025838096 0.81489468 1.0887737 0.025582092 -0.63106328 -0.77530938 0.072889671
-0.016372066 0.81611985 1.0889771 0.01464102 -0.65466613 -0.75577641 0.072798096
-0.006471429 0.81857014 1.0893834 0.0066138715 -0.65214372 -0.75806642 0.069194622
0.0068214973 0.8142494 1.0879149 -0.0011658812 -0.66447067 -0.74731344 0.070376046
0.015474286 0.81338894 1.0867698 -0.00089843874 -0.65799749 -0.75301957 0.069977984
0.025539877 0.81445748 1.0864792 0.011298043 -0.65039957 -0.75950825 0.075264849
0.034945719 0.81857014 1.0893834 0.021612274 -0.63504064 -0.77217644 0.079815708
0.045225855 0.81572974 1.0886617 0.010462873 -0.6296891 -0.77677679 0.081536256
0.05450264 0.81441766 1.0874803 0.011766672 -0.61992168 -0.78457546 0.079641469
0.064476207 0.81555855 1.0853752 -0.0015832885 -0.59750175 -0.80186599 0.076255046
0.07384339 0.81574672 1.0856259 -0.0032067501 -0.59079981 -0.80681175 0.077930667
0.081540003 0.81857014 1.0893834 -0.0080338977 -0.58850259 -0.80845541 0.084727257
0.098365717 0.81857014 1.0893834 -0.021075096 -0.60192049 -0.7982778 0.088400468
0.10553734 0.8157869 1.0852286 -0.021410856 -0.59841198 -0.80090249 0.082250655
0.11623541 0.8159709 1.0844109 -0.026702993 -0.58159453 -0.81304044 0.082215436
0.1250838 0.81524861 1.0855746 -0.010881229 -0.59123522 -0.80642575 0.08305636
0.13417834 0.81533009 1.0855221 6.9250324e-05 -0.60359728 -0.79728931 0.08070302
0.14442669 0.81604064 1.0850655 0.00066455902 -0.60542947 -0.79589868 0.081223167
0.15474288 0.81555855 1.0853752 0.01632922 -0.63746589 -0.77030545 0.081318542
0.16505907 0.81555855 1.0853753 0.009849946 -0.64283359 -0.76594251 0.078126736
0.17537524 0.8166433 1.0846782 0.014188563 -0.62764978 -0.77836657 0.076744795
0.18569145 0.81507635 1.0856851 0.034330714 -0.6503737 -0.75883818 0.080372252
0.19471811 0.81555855 1.0853755 0.046177946 -0.63549459 -0.77072316 0.078539364
0.20449714 0.81857014 1.0893834 0.055781905 -0.6509726 -0.75704902 0.083710358
0.21515088 0.81481045 1.0882335 0.064804196 -0.65853733 -0.7497527 0.081724502
0.22587143 0.81468415 1.0874231 0.061393805 -0.66102654 -0.74784666 0.084308058
0.23476517 0.81363988 1.0871036 0.053082507 -0.65619165 -0.75272483 0.084740289
0.24449477 0.81516588 1.0885993 0.048954073 -0.66081041 -0.74895471 0.086187616
0.25497431 0.81857014 1.0893834 0.03708756 -0.64206076 -0.76575613 0.08614175
0.2640343 0.81857014 1.0893834 0.033581886 -0.63492012 -0.77184767 0.086590789
0.27438861 0.81857014 1.0893834 0.028531769 -0.64381862 -0.76464599 0.087310523
0.28474286 0.81857014 1.0893834 0.015523423 -0.64963257 -0.76008987 0.086782731
0.29509717 0.81857014 1.0893834 0.011300309 -0.64794904 -0.7615999 0.087388307
0.30545145 0.81857014 1.0893834 0.0096861888 -0.65516567 -0.75542313 0.088491924
0.31580573 0.81857014 1.0893834 0.0095148869 -0.65362555 -0.75675833 0.086683892
0.32486576 0.81857014 1.0893834 0.0058651124 -0.64368683 -0.76526654 0.084411651
0.33392572 0.81857014 1.0893834 0.0096893692 -0.64372265 -0.76519746 0.082751408
0.34428003 0.81857014 1.0893834 0.0083212126 -0.63269013 -0.77436042 0.080533072
0.35463428 0.81857014 1.0893834 0.01560629 -0.63600636 -0.77152592 0.079270884
0.36498857 0.81857014 1.0893834 0.010771356 -0.63690764 -0.77086484 0.075675428
0.37534285 0.81857014 1.0893834 0.008164295 -0.64105064 -0.76745516 0.07545796
0.38440287 0.81857014 1.0893834 0.015134045 -0.63890386 -0.76913774 0.074049175
0.39475721 0.81857014 1.0893834 0.032605849 -0.64169645 -0.76626533 0.073768914
0.40511149 0.81857014 1.0893834 0.038054649 -0.64475256 -0.76344353 0.07398174
0.41493616 0.81471467 1.0862671 0.052445002 -0.65121108 -0.75708222 0.070330769
